# .PCD v0.7 - Point Cloud Data file format
VERSION 0.7
FIELDS x y z
SIZE 4 4 4
TYPE F F F
COUNT 1 1 1
WIDTH 1901
HEIGHT 1
VIEWPOINT 0 0 0 1 0 0 0
POINTS 1901
DATA ascii
-18.0047 -21.8924 288.348
-14.8077 -22.5677 288.302
-14.1128 -22.5497 288.087
-51.8084 -22.8274 298.868
-51.2506 -21.5054 297.072
-51.36 -23.077 299.054
-50.8645 -22.0148 297.597
-50.7308 -22.5334 298.204
-50.5368 -22.7897 298.469
-50.2831 -22.7822 298.39
-50.148 -23.3038 299
-48.2595 -22.7227 297.755
-48.0074 -22.7153 297.677
-20.8323 -22.2184 289.536
-18.4079 -21.1485 287.536
-17.7116 -21.1313 287.322
-17.6798 -23.6626 290.457
-16.5659 -24.402 291.066
-15.9476 -19.1068 284.319
-13.7877 -21.0356 286.117
-49.6588 -22.2409 297.545
-49.2324 -21.4491 296.443
-49.2698 -22.7524 298.072
-49.017 -22.7449 297.993
-19.7052 -22.6966 289.818
-14.377 -23.0633 288.798
-53.9811 -21.3219 297.6
-53.6003 -20.7927 296.837
-53.3465 -20.7858 296.758
-53.0307 -20.519 296.34
-52.6305 -24.1743 300.768
-52.2491 -23.6318 299.989
-48.5118 -22.7301 297.835
-19.4706 -22.6903 289.745
-17.4654 -23.9131 290.708
-15.0397 -22.5737 288.373
-10.4256 -22.4552 286.949
-55.893 -20.8555 297.55
-48.5924 -21.9501 296.888
-17.2111 -23.6497 290.311
-57.1465 -23.7839 301.534
-56.9552 -24.0444 301.804
-55.7031 -21.1099 297.813
-55.9092 -22.9501 300.156
-55.6514 -22.9424 300.075
-55.0015 -21.3505 297.918
-54.7461 -21.3433 297.838
-54.4268 -21.0745 297.416
-54.2359 -21.329 297.679
-53.3405 -22.873 299.349
-53.211 -23.3968 299.963
-52.1414 -21.0116 296.705
-57.5283 -23.2641 300.994
-57.2007 -22.9892 300.562
-16.6666 -22.6163 288.877
-13.6347 -22.285 287.626
-13.4038 -22.2791 287.555
-9.06122 -22.6722 286.841
-52.7665 -22.5931 298.842
-22.1672 -21.4942 289.006
-9.49799 -22.1805 286.351
-21.0431 -21.9706 289.287
-20.3886 -19.9489 286.595
-20.1565 -19.9434 286.524
-19.2143 -22.4296 289.35
-18.6193 -20.9033 287.29
-58.1837 -19.8824 296.976
-58.064 -20.3961 297.581
-57.7395 -20.1287 297.159
-57.4834 -20.1219 297.079
-62.1572 -21.2915 299.826
-61.8967 -21.2841 299.744
-60.1689 -19.6766 297.27
-59.9115 -19.6698 297.19
-59.002 -19.1319 296.27
-58.815 -19.3839 296.531
-58.6966 -19.8959 297.134
-58.44 -19.8891 297.055
-61.903 -19.4639 297.486
-61.4902 -20.7498 298.968
-56.8935 -18.8229 295.303
-62.1616 -19.4706 297.566
-61.1162 -21.2619 299.501
-60.6406 -20.4661 298.381
-63.6425 -19.251 297.703
-63.0859 -18.2095 296.255
-62.347 -19.2175 297.303
-21.9325 -21.4883 288.934
-63.7116 -17.7142 295.814
-63.649 -21.0717 299.966
-63.3875 -21.0643 299.884
-62.3855 -18.4481 296.358
-21.2053 -21.2181 288.397
-60.6566 -18.6611 296.144
-56.6395 -18.8165 295.224
-12.5981 -20.2627 284.827
-59.5145 -19.1449 296.428
-59.1197 -18.6229 295.671
-64.5942 -17.2263 295.452
-63.3797 -17.4519 295.396
-18.5997 -17.9416 283.607
-64.4112 -17.4762 295.712
-64.3788 -18.2412 296.653
-65.3992 -16.4848 294.754
-65.2172 -16.7336 295.012
-65.4167 -18.2668 296.972
-65.0805 -18.0025 296.55
-68.51 -16.5547 295.702
-68.4898 -17.3176 296.644
-16.6164 -18.8762 284.218
-71.6297 -18.1637 298.564
-71.3652 -18.1571 298.482
-70.4622 -19.4298 299.813
-70.0307 -18.8989 299.034
-69.1122 -16.8225 296.201
-68.7705 -16.5606 295.781
-68.7941 -19.1261 298.974
-68.1275 -17.8205 297.168
-67.5486 -16.7866 295.724
-67.4464 -17.293 296.324
-67.3439 -17.8015 296.928
-67.0831 -17.7952 296.848
-66.0696 -17.0066 295.587
-64.0447 -17.9773 296.232
-65.7339 -16.7453 295.17
-72.5181 -17.6703 298.197
-72.2534 -17.6639 298.116
-71.2207 -16.1082 295.898
-71.1009 -18.1506 298.401
-70.3383 -16.5962 296.26
-69.9945 -16.3345 295.839
-69.5706 -15.8191 295.082
-73.6662 -17.9562 298.87
-73.3134 -17.6897 298.441
-72.6971 -17.4177 297.933
-76.8535 -14.9637 296.036
-76.8583 -15.7244 296.982
-76.5922 -15.7186 296.901
-76.687 -16.7421 298.199
-75.6177 -15.1906 295.976
-75.3531 -15.185 295.896
-75.0011 -14.9253 295.475
-75.9714 -15.4513 296.397
-73.8612 -14.6503 294.818
-74.214 -14.156 294.302
-72.79 -16.9075 297.325
-79.8004 -15.7891 297.877
-79.6258 -16.0408 298.141
-78.2845 -16.0108 297.733
-77.2885 -13.9656 294.917
-73.2385 -15.8991 296.197
-66.4329 -16.508 295.069
-66.1741 -16.5022 294.99
-75.443 -16.9695 298.137
-80.149 -15.2869 297.35
-80.3542 -16.5704 299.001
-80.5913 -15.0421 297.168
-80.6076 -15.8069 298.123
-78.1666 -13.4817 294.559
-81.0335 -14.7975 296.987
-80.7649 -14.7919 296.906
-79.2635 -15.7772 297.714
-77.0239 -13.9604 294.837
-76.6702 -13.7033 294.42
-73.4161 -15.6496 295.936
-71.4829 -16.114 295.978
-81.0942 -13.5372 295.439
-80.7327 -13.2797 295.019
-82.126 -12.0581 293.887
-82.5307 -13.8164 296.183
-81.8782 -12.8007 294.741
-81.5161 -12.5448 294.323
-81.3442 -12.7911 294.581
-81.172 -13.0377 294.84
-86.1842 -12.879 296.03
-85.6124 -12.1179 294.927
-85.5728 -13.3708 296.472
-85.6036 -14.1299 297.423
-85.2314 -13.8692 296.996
-85.0604 -14.119 297.259
-84.6894 -13.8586 296.833
-83.8528 -13.0871 295.643
-83.5836 -13.0821 295.563
-82.4886 -12.3129 294.304
-85.3428 -12.1132 294.846
-84.4187 -13.8532 296.751
-73.9517 -14.1508 294.223
-73.513 -14.3925 294.402
-73.251 -14.3872 294.323
-86.761 -11.6391 294.65
-86.491 -11.6346 294.57
-82.6598 -12.0672 294.047
-87.675 -11.9036 295.232
-83.0236 -12.3223 294.464
-88.3599 -12.9189 296.682
-77.6309 -12.7245 293.471
-77.5471 -13.2205 294.063
-90.126 -11.9454 295.962
-89.8527 -11.9408 295.881
-89.0581 -10.683 294.099
-88.684 -10.4301 293.681
-88.6194 -10.924 294.277
-88.6581 -11.6707 295.215
-88.5935 -12.1695 295.816
-88.4249 -12.4172 296.077
-87.8145 -12.9089 296.519
-86.1208 -11.3801 294.151
-85.9516 -11.6257 294.409
-92.3295 -10.7334 295.067
-92.1632 -10.9797 295.327
-91.568 -10.2258 294.226
-90.8114 -9.72132 293.39
-90.645 -9.96534 293.647
-90.1447 -10.6997 294.42
-90.0826 -11.1956 295.019
-91.2952 -10.2218 294.145
-86.93 -11.3933 294.392
-92.8782 -10.7419 295.23
-92.6037 -10.7376 295.148
-94.0903 -8.53728 292.827
-93.8171 -8.53389 292.747
-94.0891 -9.76749 294.355
-93.924 -10.0126 294.613
-93.6494 -10.0087 294.533
-93.1578 -9.50761 293.774
-92.719 -9.74814 293.951
-98.5155 -9.83056 295.659
-98.3523 -10.0773 295.92
-97.9586 -9.82258 295.494
-97.6805 -9.8186 295.413
-97.1751 -9.31563 294.648
-97.4677 -10.5633 296.278
-95.4025 -7.82003 292.3
-95.1289 -7.81691 292.22
-95.0786 -9.53413 294.339
-94.3638 -8.54068 292.907
-92.6691 -9.0093 293.02
-90.1019 -9.95755 293.487
-95.9657 -10.291 295.524
-95.6889 -10.2869 295.443
-98.9572 -9.58814 295.48
-98.7943 -9.83456 295.741
-96.458 -9.55327 294.745
-97.0752 -10.3076 295.852
-90.2686 -9.71372 293.23
-99.9309 -8.11769 293.923
-100.237 -9.35738 295.547
-99.4909 -8.35839 294.1
-99.5613 -9.10016 295.041
-99.1665 -8.84759 294.618
-98.773 -8.59581 294.196
-103.448 -7.91295 294.643
-103.288 -8.15788 294.903
-103.007 -8.1545 294.82
-102.685 -8.6453 295.341
-101.766 -7.89335 294.153
-101.486 -7.8901 294.071
-101.325 -8.13434 294.33
-101.164 -8.37894 294.589
-100.767 -8.12766 294.167
-104.171 -7.67478 294.547
-103.89 -7.67159 294.465
-103.73 -7.91624 294.725
-102.606 -7.90312 294.397
-102.045 -7.8966 294.234
-100.209 -8.12101 294.004
-103.606 -5.95708 292.257
-100.371 -7.87716 293.746
-104.981 -8.17829 295.397
-105.567 -5.9745 292.822
-105.531 -6.46206 293.418
-105.005 -5.96951 292.66
-104.968 -6.45665 293.255
-104.932 -6.94569 293.852
-104.772 -7.18941 294.111
-106.751 -7.21055 294.685
-106.095 -6.46749 293.58
-107.259 -5.98961 293.309
-106.852 -5.74229 292.889
-107.319 -7.21664 294.85
-106.288 -5.73745 292.727
-108.393 -5.99976 293.636
-108.109 -5.99722 293.554
-107.825 -5.99468 293.472
-107.667 -6.23772 293.73
-109.745 -4.79316 292.512
-109.275 -5.51909 293.283
-108.864 -5.27225 292.863
-111.351 -4.07752 292.067
-111.324 -4.56171 292.661
-110.91 -4.31658 292.242
-110.626 -4.31473 292.161
-109.902 -4.55191 292.255
-109.335 -4.54802 292.094
-109.052 -4.54607 292.013
-112.885 -4.81594 293.409
-112.73 -5.05868 293.668
-112.026 -4.80969 293.164
-110.342 -4.31287 292.08
-109.931 -4.06874 291.663
-108.581 -5.27 292.781
-108.298 -5.26776 292.7
-114.962 -3.37309 292.193
-114.808 -3.61407 292.449
-114.788 -4.09889 293.045
-114.767 -4.58557 293.644
-113.947 -3.60931 292.205
-113.528 -3.36568 291.786
-114.036 -4.82434 293.738
-113.748 -4.82224 293.656
-113.328 -4.57557 293.233
-113.041 -4.57358 293.151
-112.312 -4.81177 293.245
-117.715 -3.14505 292.671
-117.562 -3.3866 292.929
-115.538 -3.37607 292.356
-115.25 -3.37458 292.274
-118.295 -3.14786 292.836
-118.005 -3.14645 292.753
-117.272 -3.38508 292.847
-116.846 -3.14083 292.426
-116.693 -3.38207 292.683
-116.404 -3.38057 292.601
-116.25 -3.62206 292.858
-115.692 -3.13525 292.099
-119.043 -2.42583 292.146
-118.615 -2.1834 291.726
-121.418 -0.513166 290.428
-121.268 -0.751591 290.682
-119.929 -1.94709 291.797
-118.325 -2.1824 291.645
-119.777 -2.18739 292.053
-123.442 -1.95798 292.783
-122.576 -0.992787 291.344
-120.244 -0.988907 290.694
-120.232 -1.46755 291.285
-119.942 -1.46686 291.204
-118.036 -2.18141 291.564
-123.592 -1.71678 292.525
-122.568 -1.47311 291.939
-121.85 -0.752354 290.845
-120.837 -0.512615 290.267
-120.965 -1.22947 291.192
-120.814 -1.46893 291.448
-123.743 -1.47591 292.267
-118.508 -0.986031 290.21
-123.755 -0.5154 291.078
-123.319 -0.276136 290.66
-118.797 -0.986514 290.29
-124.487 -0.755818 291.579
-123.905 -0.276486 290.823
-126.124 1.38861 289.369
-126.266 0.67722 290.292
-125.23 -0.038195 290.894
-125.081 -0.277189 291.149
-124.786 -0.277013 291.067
-124.637 -0.51624 291.323
-128.485 0.440169 291.201
-127.744 1.1544 290.108
-125.384 0.676484 290.049
-125.525 -0.0382687 290.975
-127.005 0.915766 290.2
-131.614 1.16043 291.173
-130.859 1.8732 290.078
-131.015 1.1595 291.008
-130.716 1.15903 290.926
-131.179 -0.0396571 292.542
-130.879 -0.0395825 292.459
-129.821 1.15763 290.68
-129.976 0.440876 291.612
-129.677 0.440737 291.53
-129.379 0.440591 291.448
-128.781 0.917891 290.689
-128.484 0.917535 290.608
-127.301 1.39086 289.692
-127.153 1.15348 289.946
-126.127 1.86075 288.784
-132.632 3.29778 288.8
-132.486 3.06157 289.053
-132.646 2.35299 289.977
-132.654 1.87796 290.569
-132.061 1.39999 290.999
-132.2 2.11434 290.15
-132.207 1.63874 290.743
-131.608 1.63737 290.579
-133.983 3.06825 289.459
-134.002 2.11977 290.642
-133.701 2.11886 290.56
-133.838 2.83117 289.713
-125.1 1.62258 288.795
-135.948 2.83985 290.287
-135.646 2.8386 290.205
-134.875 3.54453 289.115
-134.886 3.07228 289.704
-136.344 4.96192 287.761
-136.357 4.49379 288.346
-135.923 3.78585 289.105
-134.129 3.30499 289.205
-136.685 3.55394 289.604
-136.383 3.55237 289.522
-135.936 3.31373 289.695
-134.12 3.77584 288.618
197.645 -97.3885 322.402
197.92 -97.3864 322.323
196.581 -98.2553 323.773
196.857 -98.2529 323.694
197.133 -98.2505 323.614
197.114 -97.821 323.086
192.956 -97.0023 323.22
193.23 -96.9997 323.141
194.893 -97.4118 323.193
195.168 -97.4093 323.113
195.443 -97.4069 323.034
195.718 -97.4045 322.955
197.094 -97.3929 322.56
185.543 -94.5399 322.215
186.366 -95.3731 323.022
186.638 -95.3699 322.943
189.385 -96.6123 323.725
189.942 -97.0331 324.093
189.367 -95.7629 322.675
189.64 -95.76 322.596
189.631 -95.3374 322.073
190.186 -95.7544 322.438
191.835 -96.1619 322.487
192.109 -96.1592 322.408
185.01 -95.8128 323.943
185.282 -95.8094 323.864
187.466 -96.2081 323.754
187.454 -95.3607 322.705
187.998 -95.3547 322.547
188.27 -95.3517 322.468
183.922 -95.8265 324.261
184.194 -95.823 324.182
184.192 -95.3993 323.656
184.464 -95.3959 323.577
185.004 -94.9671 322.894
185.275 -94.9638 322.815
187.46 -95.7837 323.229
190.742 -96.1727 322.803
191.015 -96.1699 322.724
191.288 -96.1672 322.645
191.277 -95.7435 322.122
192.643 -95.7306 321.728
192.916 -95.7281 321.649
185.272 -94.5431 322.294
180.141 -93.3516 322.234
180.947 -93.7585 322.517
187.726 -95.3577 322.626
176.636 -93.8195 323.786
177.43 -94.6482 324.595
177.175 -93.8114 323.627
177.444 -93.8074 323.547
179.603 -93.3588 322.392
179.872 -93.3552 322.313
176.359 -94.2435 324.389
176.628 -94.2393 324.31
177.976 -94.2191 323.911
178.245 -94.2152 323.832
179.065 -93.3662 322.551
179.334 -93.3625 322.472
180.145 -92.9351 321.716
181.216 -93.755 322.438
181.754 -94.1668 322.8
182.294 -94.5798 323.164
178.527 -93.3737 322.709
178.796 -93.3699 322.63
177.727 -92.9682 322.427
177.996 -92.9644 322.348
173.512 -90.5539 320.595
173.778 -90.55 320.517
181.758 -93.3306 321.761
182.027 -93.3272 321.682
171.887 -91.4003 322.096
172.153 -91.396 322.017
172.42 -91.3918 321.938
172.686 -91.3876 321.859
169.792 -90.6127 321.698
170.058 -90.6083 321.619
170.341 -90.1945 321.027
167.955 -90.2344 321.737
168.22 -90.2299 321.658
169.224 -91.4447 322.889
168.996 -90.6261 321.935
169.28 -90.2119 321.342
169.015 -90.2164 321.421
170.854 -90.5952 321.383
171.12 -90.591 321.304
172.449 -90.5701 320.91
172.714 -90.566 320.831
172.729 -90.1572 320.32
159.974 -87.5451 320.607
160.236 -87.54 320.528
165.929 -88.6435 320.322
166.434 -89.0394 320.674
167.67 -90.649 322.331
167.69 -90.239 321.816
163.324 -88.2864 320.6
172.994 -90.1532 320.241
159.157 -87.9636 321.353
159.419 -87.9584 321.274
159.451 -87.5554 320.765
159.943 -87.9479 321.116
161.224 -88.3261 321.231
161.777 -87.9123 320.564
161.806 -87.5099 320.056
162.068 -87.505 319.977
162.33 -87.5002 319.899
162.826 -87.8927 320.249
164.061 -89.082 321.384
164.563 -89.4791 321.738
164.35 -88.6715 320.794
164.852 -89.0675 321.147
164.688 -87.4579 319.193
165.188 -87.8504 319.542
160.729 -87.9325 320.879
164.401 -87.8642 319.778
158.11 -87.9851 321.669
158.371 -87.9797 321.59
158.404 -87.5764 321.08
158.666 -87.5711 321.001
161.021 -87.5248 320.292
161.283 -87.5198 320.213
164.426 -87.4624 319.272
155.566 -87.2343 321.441
155.827 -87.2287 321.362
156.313 -87.6201 321.714
155.677 -86.0339 319.92
156.836 -87.609 321.555
156.871 -87.2066 321.046
156.681 -86.4111 320.11
156.716 -86.0125 319.605
154.377 -86.0613 320.314
153.756 -84.4931 318.538
148.427 -83.8257 319.185
149.321 -84.9851 320.377
149.58 -84.9791 320.298
149.624 -84.5836 319.794
152.3 -86.1069 320.946
152.559 -86.1011 320.866
153.039 -86.4891 321.216
152.86 -85.697 320.281
146.48 -85.0532 321.248
146.948 -85.438 321.596
147.207 -85.4316 321.517
147.677 -85.8175 321.866
146.467 -83.0901 318.814
147.771 -85.0218 320.852
147.818 -84.6258 320.347
147.446 -83.4573 318.999
148.759 -85.3941 321.041
148.805 -84.9972 320.535
149.457 -83.8022 318.87
149.714 -83.7964 318.792
151.261 -86.1305 321.262
151.521 -86.1246 321.183
151.346 -85.3343 320.25
151.822 -85.72 320.597
152.464 -84.5205 318.93
152.723 -84.515 318.851
153.199 -84.8985 319.196
153.458 -84.893 319.117
143.699 -82.7676 319.18
144.159 -83.1458 319.522
143.594 -83.5508 320.181
143.647 -83.1586 319.68
144.007 -82.3716 318.603
144.263 -82.3654 318.524
144.723 -82.7426 318.865
145.391 -83.5063 319.629
140.459 -80.5332 317.302
140.712 -80.5269 317.224
142.163 -82.8062 319.653
142.621 -83.1844 319.996
142.473 -82.4096 319.074
142.127 -81.2591 317.742
135.004 -79.9116 318.04
135.257 -79.9047 317.961
135.7 -80.2747 318.298
136.145 -80.6457 318.636
136.783 -81.3977 319.393
137.037 -81.3908 319.314
137.291 -81.3839 319.235
137.546 -81.3771 319.156
134.31 -79.5495 317.782
134.375 -79.1678 317.29
137.606 -80.9904 318.659
137.667 -80.6049 318.164
138.234 -80.2075 317.513
138.488 -80.201 317.435
138.936 -80.5719 317.772
139.189 -80.5654 317.693
133.3 -79.5774 318.097
133.74 -79.9464 318.433
130.452 -80.0407 319.461
130.704 -80.0333 319.382
130.046 -78.1541 317.23
130.661 -78.8923 317.977
131.279 -79.6347 318.727
131.532 -79.6274 318.648
131.6 -79.2449 318.155
132.981 -79.9677 318.67
133.047 -79.5845 318.176
133.246 -78.4419 316.701
133.313 -78.0634 316.213
137.535 -79.8442 317.256
137.788 -79.8377 317.178
139.639 -80.9373 318.031
139.893 -80.9308 317.952
131.669 -78.8636 317.662
128.718 -78.5702 318.114
129.15 -78.9363 318.45
129.582 -79.3034 318.786
129.835 -79.296 318.707
131.737 -78.4835 317.171
132.172 -78.8495 317.505
139.365 -79.4175 316.219
139.618 -79.4113 316.141
127.681 -77.4705 317.036
128.288 -78.205 317.78
124.001 -77.2061 317.726
123.908 -76.4616 316.828
123.672 -77.5918 318.296
123.751 -77.2139 317.805
124.675 -77.5607 317.98
125.273 -78.296 318.728
125.35 -77.9163 318.235
125.426 -77.5377 317.744
126.855 -77.8707 317.762
127.106 -77.8632 317.683
122.58 -76.8759 317.71
122.83 -76.8681 317.631
125.852 -77.901 318.077
126.102 -77.8933 317.998
126.353 -77.8858 317.919
126.604 -77.8782 317.84
127.18 -77.4852 317.193
127.078 -76.74 316.296
120.496 -75.0837 316.061
120.744 -75.0759 315.983
122.161 -76.5155 317.378
122.74 -76.1252 316.733
120.081 -75.8369 317.111
120.33 -75.829 317.032
120.413 -75.4558 316.546
121.326 -75.7976 316.718
121.575 -75.7899 316.639
119.667 -75.4794 316.782
118.843 -74.7671 316.126
118.765 -74.0354 315.238
117.516 -75.1788 317.004
117.602 -74.8069 316.518
118.836 -75.877 317.506
119.085 -75.8689 317.427
113.412 -73.8433 316.482
113.349 -73.1151 315.595
116.946 -74.4602 316.27
111.492 -74.6445 318.008
111.017 -71.7442 314.538
112.176 -73.8853 316.876
112.61 -73.1398 315.83
112.856 -73.1316 315.752
113.907 -73.8267 316.324
114.311 -74.1797 316.651
114.558 -74.1714 316.572
114.492 -73.4417 315.684
115.39 -73.7776 315.853
115.884 -73.7614 315.696
116.131 -73.7534 315.617
116.379 -73.7454 315.539
117.689 -74.4362 316.034
118.261 -75.1546 316.768
110.101 -74.3252 317.997
110.197 -73.9542 317.51
110.445 -73.9455 317.43
110.389 -73.2157 316.539
110.939 -73.9281 317.272
111.963 -72.7978 315.584
112.057 -72.4319 315.104
114.116 -72.003 314.002
110.978 -72.8313 315.899
111.073 -72.465 315.418
114.517 -72.3513 314.323
109.305 -73.6192 317.341
106.654 -70.8153 314.592
106.898 -70.8068 314.514
107.143 -70.7983 314.436
107.533 -71.1434 314.756
108.071 -71.8447 315.479
109.552 -73.6104 317.261
115.322 -73.0505 314.968
104.901 -70.1619 314.266
105.145 -70.1533 314.188
105.247 -69.7939 313.713
105.634 -70.1363 314.032
106.308 -71.1861 315.149
106.553 -71.1775 315.07
103.647 -72.0036 316.901
103.611 -71.2828 316.015
103.575 -70.5663 315.135
103.68 -70.2052 314.658
104.064 -70.5487 314.978
104.168 -70.1878 314.501
104.132 -69.4778 313.63
104.516 -69.8194 313.948
107.877 -70.7731 314.201
101.02 -71.019 316.405
101.402 -71.3647 316.729
101.372 -70.6468 315.845
101.617 -70.6377 315.766
101.724 -70.2759 315.287
101.969 -70.267 315.208
102.213 -70.2581 315.13
98.6334 -69.3221 314.958
98.8772 -69.313 314.88
99.6579 -70.7111 316.4
102.564 -69.8888 314.574
102.182 -69.547 314.255
94.6009 -69.1212 315.825
94.7173 -68.7623 315.347
95.0888 -69.1022 315.667
95.2045 -68.7435 315.189
97.2063 -70.8054 317.196
96.7955 -69.0367 315.113
97.7508 -68.2945 313.927
98.2572 -68.9817 314.64
99.633 -69.9964 315.519
99.718 -68.9277 314.168
100.774 -71.0282 316.484
95.8064 -68.3673 314.555
96.308 -69.0553 315.271
99.3412 -68.5883 313.851
91.0555 -66.1017 313.057
91.4185 -66.4348 313.37
93.0247 -70.254 317.669
92.7673 -68.8387 315.982
92.8861 -68.4802 315.504
93.1296 -68.4706 315.425
93.241 -67.4113 314.078
95.4481 -68.7341 315.11
95.5632 -68.3766 314.634
96.9088 -68.6786 314.637
97.2828 -69.0182 314.955
97.3955 -68.6603 314.479
93.123 -67.7665 314.552
90.4521 -65.7786 312.823
90.8139 -66.111 313.135
93.726 -67.3927 313.921
97.3774 -67.9567 313.611
93.3587 -67.0572 313.606
87.6541 -67.6329 315.9
87.322 -65.2098 312.983
87.563 -65.2003 312.905
82.7998 -63.3352 311.907
83.9242 -66.0388 314.953
85.4768 -67.021 315.743
85.0377 -64.956 313.3
85.2788 -64.9464 313.222
85.6333 -65.2768 313.534
86.218 -66.2926 314.633
86.0019 -64.9176 312.986
87.0808 -65.2193 313.062
88.7567 -66.5388 314.236
88.9989 -66.5292 314.157
89.3601 -66.8635 314.473
89.7223 -67.1987 314.789
89.9671 -66.4911 313.842
89.8501 -65.4564 312.589
90.2108 -65.7879 312.901
88.1547 -66.2149 314.001
89.6057 -66.1578 313.528
81.8153 -64.0567 313.076
82.7121 -66.0893 315.352
82.8442 -65.7365 314.877
83.0863 -65.7264 314.797
83.3284 -65.7164 314.718
84.3914 -66.7163 315.665
83.9614 -64.6554 313.225
84.426 -65.3254 313.929
84.6675 -65.3157 313.849
86.587 -65.9304 314.081
86.8289 -65.9207 314.002
88.3966 -66.2053 313.922
80.8792 -63.4123 312.535
81.5494 -64.7538 314.015
81.4669 -63.7292 312.765
79.2696 -64.505 314.337
79.5111 -64.4949 314.258
80.5047 -63.7685 313.081
80.427 -62.7516 311.839
80.1291 -64.126 313.629
80.264 -63.7784 313.159
76.4463 -63.2554 313.567
76.687 -63.2453 313.488
78.4071 -64.886 315.049
78.9639 -65.9012 316.156
78.0626 -62.1716 311.774
79.1329 -64.8551 314.81
79.3323 -63.1353 312.619
79.5725 -63.1255 312.54
75.2841 -62.625 313.106
75.5244 -62.6149 313.027
75.7647 -62.6047 312.948
76.1051 -62.9297 313.257
77.923 -64.9067 315.209
76.4242 -61.5655 311.474
76.8645 -62.2207 312.166
78.0614 -64.5562 314.735
72.6898 -60.3818 311.038
73.0236 -60.7013 311.343
73.2625 -60.6914 311.264
74.3222 -62.6658 313.423
74.4647 -62.321 312.955
71.6306 -61.7666 313.051
71.8707 -61.7563 312.972
73.5974 -61.0117 311.569
74.2177 -60.652 310.951
74.5535 -60.9721 311.255
71.7346 -60.4215 311.352
72.0675 -60.7413 311.657
70.3922 -60.8122 312.209
70.9097 -61.7977 313.289
72.1184 -60.0728 310.813
72.5456 -60.7213 311.5
67.7656 -58.2734 309.783
68.0032 -58.2636 309.705
70.7786 -60.4617 311.667
71.0177 -60.4517 311.588
69.5246 -61.1846 312.912
69.5824 -60.5126 312.061
69.4593 -59.1898 310.452
69.6072 -58.854 309.994
66.9881 -58.9638 310.856
67.4013 -59.6077 311.541
67.4648 -58.9436 310.699
67.703 -58.9336 310.62
68.5953 -59.5569 311.147
68.8339 -59.5468 311.069
62.7689 -59.478 312.663
62.9267 -59.1396 312.199
63.4136 -60.1149 313.275
63.5708 -59.7748 312.809
63.562 -58.7813 311.578
63.7182 -58.4451 311.117
63.9568 -58.4348 311.038
64.2786 -58.7502 311.341
64.854 -60.0509 312.797
65.0939 -60.0403 312.717
65.3337 -60.0298 312.638
65.3178 -59.0353 311.407
66.034 -59.0045 311.171
66.2726 -58.9943 311.092
66.7712 -59.967 312.162
65.3023 -58.0491 310.187
65.5402 -58.039 310.108
62.0466 -58.5179 311.67
62.2049 -58.1821 311.209
61.7288 -59.1927 312.596
59.731 -58.9511 312.849
59.9709 -58.9403 312.769
60.2892 -59.2573 313.075
59.8285 -56.3284 309.565
60.5328 -58.2554 311.763
60.7719 -58.2449 311.684
60.6963 -56.9401 310.085
60.9341 -56.9298 310.006
61.7275 -58.2029 311.367
58.7919 -57.0227 310.714
58.9542 -56.6904 310.257
58.3152 -57.0437 310.872
58.5536 -57.0332 310.793
66.7496 -58.974 310.934
57.3609 -57.0858 311.189
57.4512 -56.4313 310.351
57.6892 -56.4209 310.272
58.0018 -56.7319 310.572
54.421 -56.8913 311.761
54.3793 -55.596 310.164
54.5473 -55.2665 309.709
54.7849 -55.2562 309.63
54.952 -54.9278 309.176
55.1892 -54.9176 309.098
55.7832 -56.5048 310.904
55.8777 -55.8529 310.068
56.2601 -56.4837 310.746
56.0655 -54.56 308.411
56.8099 -56.7844 310.967
53.8727 -56.5903 311.539
54.1117 -56.5795 311.46
56.9017 -56.1314 310.131
52.0627 -56.0227 311.335
52.1674 -55.3717 310.498
52.3385 -55.0423 310.042
52.7116 -55.67 310.718
53.0182 -55.9796 311.017
53.3944 -56.6119 311.699
53.5644 -56.2793 311.238
51.757 -55.7128 311.035
50.0012 -54.1848 309.624
50.1109 -53.543 308.796
45.9517 -53.0919 309.388
46.1307 -52.7674 308.935
46.9038 -54.3236 310.654
47.1425 -54.3128 310.574
47.1999 -53.3537 309.367
48.5732 -54.2484 310.098
48.8114 -54.2377 310.019
49.0495 -54.2271 309.94
49.2875 -54.2164 309.861
49.2111 -52.6328 307.915
50.0193 -55.4684 311.213
50.6059 -54.7982 310.218
50.8441 -54.7875 310.139
50.8867 -53.827 308.934
51.1238 -53.8167 308.856
46.4864 -53.3855 309.604
47.3772 -53.0287 308.915
47.6146 -53.0183 308.836
48.1583 -54.5873 310.634
48.2116 -53.6266 309.426
43.2025 -53.8533 311.094
43.1656 -52.2679 309.136
43.5695 -53.1992 310.18
43.8641 -53.5039 310.477
44.6373 -53.7874 310.615
44.7616 -53.1453 309.783
44.9425 -52.8202 309.33
45.4116 -54.0716 310.754
44.0466 -53.1775 310.021
42.2985 -54.2154 311.794
42.4296 -53.5697 310.956
42.56 -52.9276 310.123
42.9081 -53.5477 310.796
44.1724 -52.5385 309.193
45.4759 -53.1132 309.546
41.5517 -52.6567 310.065
41.8437 -52.9603 310.362
36.1408 -51.9575 310.695
36.3341 -51.6333 310.239
38.6318 -52.4741 310.647
38.8712 -52.4631 310.567
38.8629 -50.8914 308.617
39.0512 -50.5711 308.168
39.1897 -49.9439 307.35
39.3768 -49.6265 306.904
45.5398 -52.1627 308.348
38.1042 -52.1823 310.431
38.3434 -52.1712 310.351
40.5445 -52.3862 310.008
36.8644 -50.3573 308.508
37.2908 -51.5893 309.919
39.5139 -49.0046 306.094
40.6281 -51.4382 308.808
41.0741 -52.6785 310.225
37.34 -50.3361 308.349
37.7686 -51.5675 309.76
41.2603 -52.3537 309.77
35.1686 -48.5784 306.768
35.539 -49.4859 307.792
32.5676 -50.5529 309.94
32.8488 -50.8528 310.234
33.0465 -50.5308 309.78
33.2858 -50.5198 309.7
33.5676 -50.8195 309.994
34.2421 -50.476 309.381
34.8261 -49.5177 308.029
34.9319 -48.5887 306.846
33.7214 -50.1881 309.167
33.7893 -48.9464 307.607
31.37 -48.7464 308.028
31.6479 -49.0421 308.318
36.2967 -49.7617 307.925
39.8494 -49.606 306.748
27.2384 -46.1848 305.991
27.6824 -47.9905 308.11
27.9913 -48.5911 308.771
29.7522 -47.2876 306.664
29.9894 -47.2772 306.586
30.5707 -50.0214 309.833
30.8494 -50.3202 310.127
32.0477 -50.2648 309.726
31.8838 -47.1948 305.959
36.5802 -50.0592 308.216
27.0013 -46.1952 306.069
28.195 -48.2742 308.321
26.4543 -47.7395 308.139
26.6597 -47.4246 307.691
26.8645 -47.1107 307.244
28.3269 -47.3504 307.137
28.5647 -47.3399 307.058
28.6947 -46.4238 305.884
28.8596 -45.8138 305.081
29.2409 -47.006 306.456
29.5518 -47.6012 307.109
30.7005 -47.2461 306.35
30.9373 -47.2358 306.272
34.4809 -50.4651 309.301
34.7197 -50.4542 309.222
25.7182 -45.3477 305.372
26.3146 -48.668 309.33
24.832 -45.988 306.413
25.0697 -45.9776 306.334
25.2444 -45.3681 305.529
25.5448 -45.9568 306.176
22.3103 -44.5965 305.383
22.8982 -45.7714 306.679
23.1653 -46.0615 306.965
23.4037 -46.0509 306.886
23.642 -46.0404 306.807
23.7323 -44.5355 304.913
23.9689 -44.5254 304.835
24.2355 -44.8125 305.118
24.5942 -45.9985 306.491
22.4364 -43.4026 303.865
22.0545 -47.0224 308.466
20.5105 -45.8775 307.472
20.7497 -45.8668 307.392
20.9105 -44.9565 306.217
21.1487 -44.9461 306.138
21.6289 -47.6538 309.368
21.842 -47.3376 308.916
22.2107 -46.104 307.282
18.5775 -42.6796 304.035
19.7604 -42.63 303.646
20.3474 -46.7955 308.657
16.8962 -42.4561 304.223
17.304 -44.8157 307.041
18.067 -45.3833 307.534
18.1708 -43.5838 305.271
19.0276 -42.3667 303.522
19.8917 -47.1217 309.188
19.6015 -46.5251 308.528
16.6891 -46.3547 309.122
16.9304 -46.3436 309.042
17.4134 -43.0239 304.785
17.651 -43.0137 304.707
14.6813 -45.2347 308.287
14.9596 -45.827 308.946
16.1253 -45.1693 307.806
16.1839 -42.4862 304.458
13.5469 -42.3041 304.962
13.7854 -42.2939 304.883
14.0065 -41.9906 304.445
14.2444 -41.9805 304.367
13.0215 -41.4462 304.042
13.2919 -42.0209 304.681
15.8059 -43.9843 306.423
12.6703 -43.8247 307.093
12.9428 -44.4109 307.746
14.976 -42.2432 304.491
15.3845 -44.9016 307.679
15.6444 -45.191 307.966
11.9783 -44.4546 308.067
12.2502 -45.0441 308.724
12.3529 -42.3554 305.356
9.22401 -42.1961 306.025
9.53508 -43.9657 308.136
10.1841 -42.1544 305.707
10.7032 -43.019 306.637
10.903 -42.1233 305.469
11.2678 -44.7877 308.677
11.4954 -44.4765 308.228
11.7369 -44.4655 308.147
8.79777 -43.6999 308.01
8.95046 -41.3262 305.02
7.32547 -43.1696 307.759
7.58642 -43.7549 308.414
7.69458 -39.6339 303.266
7.92316 -39.3361 302.833
8.27229 -42.5334 306.707
8.51326 -42.5228 306.627
10.4497 -42.7336 306.353
18.7912 -42.3766 303.6
6.82402 -42.5976 307.188
7.0657 -42.5869 307.107
9.69231 -41.8812 305.504
9.94427 -42.1648 305.786
3.83324 -37.7825 302.036
4.34643 -39.7733 304.366
4.59767 -40.3438 305.005
4.87412 -42.0922 307.1
5.11617 -42.0815 307.02
5.29242 -39.156 303.338
5.5999 -42.0601 306.859
18.2956 -42.1039 303.399
4.13697 -41.5349 306.612
5.83434 -41.7548 306.415
6.32457 -42.0281 306.619
6.5659 -42.0175 306.539
6.06807 -41.4504 305.972
2.1871 -40.4472 305.801
2.92971 -41.8832 307.379
-1.44328 -39.149 305.194
-1.1955 -37.9866 303.682
-0.966375 -40.8779 307.209
-0.721093 -40.2812 306.4
-0.479981 -41.1503 307.412
-0.232672 -37.0916 302.303
0.00691986 -39.6672 305.436
0.247789 -38.7889 304.278
0.492354 -40.5207 306.361
0.734839 -40.5101 306.281
0.97965 -41.0857 306.928
1.2179 -40.1972 305.759
1.45789 -39.8958 305.318
1.69928 -39.8854 305.238
1.93575 -39.2956 304.44
2.41079 -38.6991 303.568
2.65051 -38.6892 303.489
-3.36747 -38.0766 304.395
-3.14475 -39.512 306.116
-2.40964 -38.9007 305.153
-1.92533 -38.8802 304.993
-1.67121 -37.1494 302.774
-2.89446 -38.9213 305.313
-2.62325 -36.3365 302.028
-5.34608 -39.8994 307.206
-5.09512 -39.5967 306.761
-4.84491 -39.2948 306.317
-4.60108 -39.2843 306.236
-4.28916 -35.5561 301.52
-3.85624 -38.3847 304.913
-2.14656 -36.6006 302.224
-4.04458 -35.2658 301.091
-6.24163 -36.7655 303.562
-5.46333 -34.4814 300.51
-3.60944 -38.0867 304.474
-6.69338 -35.6506 302.303
-6.48368 -36.7754 303.641
-5.70949 -34.77 300.937
-7.73358 -37.9724 305.474
-7.50804 -38.5399 306.116
-7.14128 -34.5455 301.054
-8.44547 -37.4277 304.995
-7.92914 -36.5498 303.761
-8.12252 -35.144 302.069
3.34845 -37.233 301.488
3.58624 -37.2236 301.41
-8.67873 -37.1511 304.716
-5.99971 -36.7557 303.483
3.10299 -36.6765 300.865
-6.90948 -34.8162 301.326
-28.8314 -31.4832 303.256
-28.5825 -31.4737 303.176
-27.1767 -30.0469 301.014
-26.866 -29.4909 300.238
-29.6492 -30.1366 301.81
-29.4366 -30.403 302.082
-29.3296 -31.5021 303.418
-29.0453 -31.2146 302.982
-27.7698 -30.8911 302.227
-27.4891 -30.6059 301.795
-30.5691 -29.6231 301.427
-30.4673 -30.7162 302.757
-29.8588 -27.9728 299.181
-29.613 -27.9645 299.103
-28.1976 -30.3576 301.683
-27.9839 -30.6241 301.955
-31.4119 -28.5658 300.348
-31.0165 -27.4749 298.883
-30.7705 -27.4667 298.805
-30.6337 -28.2686 299.763
-26.716 -30.3035 301.206
-26.3434 -29.2012 299.733
-33.8946 -28.6528 301.143
-33.6456 -28.644 301.063
-31.7933 -27.7696 299.464
-31.4717 -27.2223 298.696
-33.3569 -28.3629 300.634
-33.1085 -28.3542 300.555
-32.8996 -28.6178 300.824
-32.6512 -28.6091 300.744
-32.249 -27.5163 299.276
-31.9642 -27.2387 298.852
-34.4758 -29.2178 302.006
-34.1847 -28.9349 301.574
-34.6845 -27.3299 299.719
-34.3955 -27.052 299.294
-38.8162 -28.283 302.046
-38.5182 -28.0011 301.614
-38.0391 -26.6375 299.788
-37.9704 -27.7114 301.102
-37.4069 -25.8164 298.593
-37.2468 -26.344 299.204
-36.6316 -27.1269 300.006
-36.3825 -27.1185 299.926
-36.4814 -29.2903 302.651
-36.2301 -29.2812 302.57
-35.0977 -26.8076 299.185
-34.8913 -27.0685 299.451
-9.75149 -28.1128 293.788
-9.51666 -28.1054 293.714
-35.4256 -25.753 297.966
-35.1786 -25.7452 297.888
-38.8537 -25.5972 298.721
-38.6965 -26.1245 299.333
-36.9981 -26.3358 299.125
-36.7061 -26.0598 298.701
-8.72178 -25.7267 290.54
-39.7429 -26.4262 299.997
-39.4456 -26.149 299.57
-8.49966 -25.9793 290.792
-42.256 -25.1746 299.138
-41.906 -24.6338 298.37
-41.7521 -26.4931 300.636
-41.1568 -24.6105 298.134
-40.8111 -24.0733 297.371
-40.7545 -25.127 298.663
-40.6976 -26.1902 299.968
-25.9134 -27.5727 297.592
-25.6703 -27.5647 297.515
-12.0506 -27.1299 293.204
-11.8019 -26.8599 292.8
-43.4153 -26.0121 300.499
-43.163 -26.0038 300.419
-42.9108 -25.9955 300.339
-42.4565 -24.9157 298.872
-40.4951 -26.4512 300.236
-40.2442 -26.4429 300.156
-39.9459 -26.1654 299.729
-25.4273 -27.5567 297.438
-25.1846 -27.5487 297.36
-10.4968 -23.9776 288.859
-10.2541 -23.7162 288.467
-43.6084 -24.4225 298.579
-41.9539 -26.2316 300.367
-45.4404 -26.0791 301.143
-44.8794 -25.7926 300.632
-44.6263 -25.7843 300.552
-43.2553 -23.8846 297.813
-39.0565 -25.3383 298.456
-22.6081 -23.5428 291.672
-22.3197 -23.0221 290.946
-12.1033 -23.766 289.041
-46.5446 -25.3123 300.497
-44.3734 -25.776 300.471
-44.1734 -26.0371 300.74
-46.7985 -25.3205 300.577
-45.8001 -22.9121 297.31
-45.603 -23.1679 297.573
-45.2407 -26.3412 301.413
-12.9424 -22.2674 287.412
-11.0645 -21.4685 285.9
-23.7218 -25.1285 293.95
-23.5098 -25.3832 294.207
-23.2163 -24.853 293.468
-23.0579 -25.6312 294.39
-14.0087 -24.5872 290.589
-47.4769 -26.1471 301.792
-46.4983 -22.6713 297.204
-45.2457 -22.635 296.812
-13.986 -20.5429 285.56
-46.9454 -22.4235 297.02
-13.6656 -22.791 288.263
-13.4342 -22.785 288.191
-13.1582 -22.0212 287.166
-12.3351 -23.7722 289.113
-8.84227 -22.9188 287.086
-45.0486 -22.8901 297.074
-24.2008 -25.1428 294.1
-19.9921 -20.6868 287.401
-19.7594 -20.6811 287.33
-16.35 -24.6536 291.319
-15.8426 -20.8359 286.438
-15.899 -24.899 291.499
-15.4163 -21.3251 286.927
-15.1684 -21.069 286.54
-15.1777 -24.6203 290.953
-14.9437 -24.6136 290.88
-14.3965 -19.8101 284.763
-51.1178 -22.022 297.677
-51.2268 -23.6004 299.667
-48.2595 -22.7227 297.755
-47.7823 -21.6678 296.313
-47.6432 -22.1831 296.915
-19.3914 -24.4824 291.949
-14.1677 -19.8049 284.693
-52.4427 -23.3733 299.722
-52.1251 -23.0999 299.294
-50.7908 -22.7972 298.549
-50.8376 -24.1181 300.202
-50.1645 -22.2555 297.703
-49.9704 -22.5112 297.966
-49.7761 -22.7673 298.231
-49.5229 -22.7598 298.151
-48.9809 -21.4422 296.365
-48.8441 -21.9572 296.967
-48.5691 -22.9937 298.178
-23.9334 -24.8742 293.693
-20.8085 -21.9646 289.214
-19.1552 -24.4757 291.875
-18.5983 -20.653 286.973
-18.3664 -20.6474 286.902
-18.2169 -21.6459 288.101
-17.9843 -21.64 288.029
-17.6916 -20.8807 287.005
-52.8291 -22.8578 299.188
-52.264 -21.5338 297.388
-17.46 -20.8751 286.934
-16.5659 -24.402 291.066
-55.0015 -21.3505 297.918
-54.7461 -21.3433 297.838
-53.5351 -21.5696 297.784
-53.3434 -21.8248 298.048
-20.4809 -20.9491 287.862
-20.3863 -22.4605 289.713
-19.8413 -24.2371 291.769
-16.6288 -22.1095 288.237
-54.0448 -21.584 297.943
-53.6633 -21.0535 297.179
-57.2151 -24.0526 301.886
-56.887 -23.7757 301.452
-55.9589 -21.117 297.893
-56.3012 -23.4917 300.937
-55.2522 -20.3205 296.708
-55.192 -21.0957 297.654
-54.4909 -21.3362 297.759
-54.2999 -21.5912 298.023
-52.9637 -21.2935 297.283
-52.5862 -20.7652 296.522
-17.2286 -20.8694 286.863
-51.2506 -21.5054 297.072
-48.5354 -21.6889 296.548
-10.9094 -22.9723 287.725
-10.6551 -22.461 287.02
-57.0515 -21.4082 298.557
-56.8618 -21.6641 298.822
-9.06122 -22.6722 286.841
-58.2522 -20.1424 297.318
-57.9276 -19.8756 296.896
-16.7096 -20.1108 285.777
-9.95566 -22.192 286.492
-58.6276 -19.6363 296.793
-58.3715 -19.6296 296.714
-57.5366 -19.351 296.137
-57.4834 -20.1219 297.079
-51.5037 -21.5125 297.151
-21.0431 -21.9706 289.287
-9.71581 -21.9353 286.107
-61.9363 -20.5016 298.784
-61.6039 -20.2325 298.357
-59.701 -18.8932 296.167
-59.7246 -19.9231 297.453
-59.1197 -18.6229 295.671
-59.0712 -19.3905 296.61
-58.7461 -19.1254 296.191
-47.281 -21.6538 296.157
-62.1616 -19.4706 297.566
-57.1604 -19.8554 296.659
-47.0858 -21.9075 296.418
-11.2933 -21.474 285.971
-63.7588 -20.5517 299.35
-62.7534 -19.7447 298.07
-61.7576 -18.9452 296.801
-60.9849 -18.9256 296.563
-60.7557 -19.9505 297.772
-60.6406 -20.4661 298.381
-21.4393 -21.224 288.469
-21.2053 -21.2181 288.397
-62.347 -19.2175 297.303
-64.39 -20.048 298.9
-64.1291 -20.0409 298.819
-63.6425 -19.251 297.703
-63.1622 -20.2748 298.841
-63.2728 -19.7585 298.231
-16.959 -20.3648 286.162
-12.356 -20.0102 284.447
-60.5857 -18.4037 295.804
-56.6395 -18.8165 295.224
-64.7139 -18.506 297.074
-59.9574 -18.8997 296.246
-12.584 -20.0154 284.516
-65.0043 -17.7452 296.21
-65.2038 -19.2916 298.185
-65.2634 -17.7514 296.289
-65.7053 -17.5068 296.108
-65.4461 -17.5007 296.029
-66.5881 -17.0185 295.746
-66.2513 -16.757 295.328
-73.7536 -18.2168 299.218
-73.4874 -18.2101 299.136
-70.9083 -19.1813 299.628
-69.6518 -16.0736 295.421
-68.51 -16.5547 295.702
-68.4095 -17.0608 296.303
-67.6277 -17.0426 296.064
-67.4464 -17.293 296.324
-67.0291 -16.7748 295.565
-66.8477 -17.0245 295.825
-66.0696 -17.0066 295.587
-65.8876 -17.2565 295.847
-72.6039 -17.9299 298.543
-70.8368 -18.144 298.32
-69.3102 -15.8135 295.003
-69.05 -15.8079 294.924
-69.0313 -16.5665 295.861
-68.6902 -16.3054 295.442
-72.3388 -17.9234 298.462
-72.2449 -18.4376 299.074
-71.8944 -18.1703 298.645
-71.6297 -18.1637 298.564
-71.4497 -18.4175 298.829
-70.4353 -16.0908 295.659
-72.9618 -17.424 298.014
-72.783 -17.6768 298.278
-74.3003 -14.4082 294.639
-64.3033 -17.9836 296.312
-63.8951 -17.464 295.554
-77.1247 -15.7302 297.063
-76.7681 -15.4684 296.639
-76.4126 -15.2074 296.217
-76.1474 -15.2018 296.136
-76.0607 -15.707 296.74
-75.4411 -14.6824 295.296
-75.1772 -14.677 295.216
-75.0011 -14.9253 295.475
-75.443 -16.9695 298.137
-74.0337 -15.1573 295.496
-73.5884 -16.1608 296.619
-74.0377 -14.4029 294.56
-68.2286 -17.3115 296.564
-67.7295 -16.5371 295.464
-77.3729 -13.4668 294.321
-77.2885 -13.9656 294.917
-80.6076 -15.8069 298.123
-80.2435 -15.5436 297.695
-80.164 -16.0528 298.305
-79.8004 -15.7891 297.877
-79.5318 -15.7831 297.795
-76.9388 -14.4611 295.436
-80.7816 -15.5553 297.858
-73.3244 -16.1549 296.538
-81.3023 -14.8031 297.068
-81.0335 -14.7975 296.987
-80.9554 -15.3042 297.595
-77.9926 -13.7286 294.818
-77.6373 -13.4717 294.4
-77.2039 -14.4664 295.516
-81.5713 -14.8087 297.15
-78.7067 -14.2448 295.656
-78.4407 -14.2395 295.576
-82.756 -12.3176 294.384
-82.3172 -12.559 294.562
-82.1456 -12.8055 294.821
-81.9738 -13.0524 295.08
-81.5161 -12.5448 294.323
-85.0312 -13.3605 296.309
-80.9832 -12.5354 294.164
-85.4022 -13.6198 296.734
-84.8604 -13.6093 296.571
-82.4886 -12.3129 294.304
-85.0735 -12.1086 294.766
-73.513 -14.3925 294.402
-73.251 -14.3872 294.323
-85.9826 -12.3741 295.348
-85.7124 -12.3693 295.267
-85.3428 -12.1132 294.846
-84.1221 -13.0921 295.724
-83.7547 -12.8347 295.303
-83.5836 -13.0821 295.563
-83.8033 -11.5902 293.771
-83.0236 -12.3223 294.464
-86.3903 -11.3845 294.231
-86.3217 -11.8807 294.829
-86.1523 -12.1272 295.088
-90.3553 -11.2 295.1
-90.188 -11.4465 295.36
-89.9152 -11.442 295.279
-89.1619 -10.9325 294.437
-88.7871 -10.6789 294.019
-89.2434 -12.4318 296.322
-88.9703 -12.4269 296.24
-88.4898 -11.9175 295.475
-87.8074 -10.9113 294.036
-88.2561 -12.6654 296.339
-88.0871 -12.9139 296.601
-87.8145 -12.9089 296.519
-86.3586 -10.6418 293.3
-90.6894 -10.7081 294.582
-90.4169 -10.7039 294.501
-86.6274 -10.6459 293.38
-81.1552 -12.2898 293.906
-91.9481 -10.4792 294.646
-91.4614 -9.97707 293.888
-91.4016 -10.4709 294.484
-89.5379 -11.1868 294.857
-93.3186 -10.4999 295.051
-92.719 -9.74814 293.951
-93.2054 -11.4963 296.257
-92.9299 -11.4917 296.175
-92.3295 -10.7334 295.067
-94.8602 -10.2746 295.198
-94.5845 -10.2705 295.116
-94.1989 -10.0166 294.695
-93.924 -10.0126 294.613
-93.6494 -10.0087 294.533
-93.1578 -9.50761 293.774
-98.4 -9.58034 295.316
-98.1218 -9.57645 295.234
-97.2888 -9.56483 294.989
-96.8983 -9.31187 294.567
-96.6218 -9.30812 294.485
-95.4557 -7.33401 291.711
-96.0783 -10.542 295.867
-95.8012 -10.5377 295.785
-94.5279 -8.29801 292.651
-94.2546 -8.29471 292.572
-95.1826 -7.33108 291.632
-95.0192 -7.57225 291.886
-99.0734 -9.83856 295.823
-98.6785 -9.58424 295.398
-97.7295 -9.32316 294.811
-97.5662 -9.5687 295.07
-90.645 -9.96534 293.647
-99.6071 -8.60631 294.44
-99.795 -9.59988 295.726
-99.5155 -9.59595 295.644
-98.4289 -7.85474 293.181
-90.8114 -9.72132 293.39
-103.088 -8.89864 295.767
-102.806 -8.89496 295.684
-100.254 -7.63057 293.408
-99.9763 -7.62745 293.327
-99.9309 -8.11769 293.923
-99.0764 -6.88583 292.157
-103.851 -8.16467 295.067
-101.766 -7.89335 294.153
-104.613 -7.43351 294.37
-104.209 -7.18342 293.947
-103.326 -5.95461 292.177
-103.048 -5.95214 292.097
-103.448 -7.91295 294.643
-101.572 -6.91122 292.879
-101.486 -7.8901 294.071
-101.089 -7.63996 293.651
-100.811 -7.63683 293.57
-100.767 -8.12766 294.167
-105.936 -6.71077 293.839
-105.778 -6.95442 294.097
-105.005 -5.96951 292.66
-104.847 -6.21154 292.917
-105.177 -7.43972 294.534
-104.772 -7.18941 294.111
-105.762 -5.24777 291.973
-105.726 -5.73263 292.566
-108.141 -7.72008 295.702
-107.983 -7.96624 295.964
-103.167 -7.90968 294.561
-106.57 -5.73987 292.808
-106.288 -5.73745 292.727
-102.886 -7.90639 294.479
-108.298 -5.26776 292.7
-107.201 -4.77483 291.785
-106.673 -4.28903 291.035
-109.902 -4.55191 292.255
-109.618 -4.54996 292.174
-108.864 -5.27225 292.863
-108.581 -5.27 292.781
-112.312 -4.81177 293.245
-111.895 -4.56565 292.824
-111.351 -4.07752 292.067
-111.324 -4.56171 292.661
-111.428 -5.29261 293.598
-110.754 -4.55778 292.499
-109.844 -5.52381 293.446
-109.052 -4.54607 292.013
-110.598 -4.79933 292.756
-110.186 -4.55386 292.336
-109.021 -5.03047 292.606
-107.64 -4.5364 291.61
-107.359 -4.53448 291.53
-112.754 -4.57159 293.069
-112.467 -4.5696 292.988
-115.364 -4.1025 293.21
-114.788 -4.09889 293.045
-114.5 -4.0971 292.964
-113.46 -4.82014 293.574
-112.386 -3.3598 291.463
-115.672 -3.61885 292.694
-115.25 -3.37458 292.274
-114.942 -3.8571 292.788
-114.079 -3.85202 292.543
-113.925 -4.09351 292.8
-113.637 -4.09171 292.718
-113.483 -4.33347 292.975
-118.128 -3.87594 293.693
-117.974 -4.11888 293.953
-118.02 -2.66302 292.157
-117.868 -2.90386 292.414
-116.829 -3.62527 293.022
-115.999 -2.65466 291.587
-115.711 -2.65348 291.506
-115.558 -2.89349 291.762
-116.458 -1.93643 290.823
-116.171 -1.93555 290.742
-119.043 -2.42583 292.146
-118.341 -1.7024 291.053
-118.325 -2.1824 291.645
-118.036 -2.18141 291.564
-119.79 -1.70635 291.459
-119.499 -1.70556 291.378
-118.934 -1.22538 290.625
-118.782 -1.46411 290.879
-120.511 -1.94889 291.96
-120.22 -1.94799 291.878
-123.887 -1.71758 292.607
-123.592 -1.71678 292.525
-122.585 -0.514278 290.752
-122.576 -0.992787 291.344
-121.236 -2.19242 292.463
-120.944 -2.19141 292.381
-122.568 -1.47311 291.939
-122.133 -1.23183 291.518
-121.117 -0.990357 290.937
-120.826 -0.989871 290.856
-124.187 -1.23601 292.092
-123.462 -0.515115 290.996
-124.487 -0.755818 291.579
-124.049 -0.515677 291.16
-121.278 -0.274914 290.094
-120.988 -0.274747 290.013
-127.892 -0.519377 292.228
-126.127 1.86075 288.784
-127.149 -0.278437 291.723
-125.249 1.85846 288.543
-125.388 1.15074 289.461
-124.786 -0.277013 291.067
-123.634 1.14804 288.979
-128.187 1.39255 289.936
-128.485 0.440169 291.201
-127.596 1.39142 289.773
-126.559 0.200591 290.965
-125.384 0.676484 290.049
-127.154 1.62723 289.358
-127.006 1.39029 289.611
-124.36 0.912619 289.472
-131.614 1.16043 291.173
-130.863 1.39768 290.67
-130.716 1.15903 290.926
-129.821 1.15763 290.68
-129.824 0.680196 291.273
-129.677 0.440737 291.53
-129.228 0.679693 291.109
-128.335 1.62991 289.682
-125.379 0.200457 290.639
-124.797 0.675995 289.887
-130.418 1.15856 290.844
-130.119 1.1581 290.762
-133.401 2.11796 290.478
-133.255 1.87955 290.734
-132.061 1.39999 290.999
-131.608 1.63737 290.579
-131.01 1.63601 290.415
-132.354 1.87716 290.487
-131.597 2.58594 289.397
-134.875 3.54453 289.115
-134.45 2.35908 290.469
-134.304 2.12068 290.725
-134.158 1.88195 290.981
-133.701 2.11886 290.56
-132.954 1.87875 290.651
-132.194 2.58817 289.56
-134.595 2.59715 290.214
-136.106 2.60282 290.625
-135.803 2.60168 290.542
-134.886 3.07228 289.704
-134.429 3.30644 289.287
-136.816 4.26193 288.761
-137.626 2.60853 291.038
-136.685 3.55394 289.604
-137.017 2.60624 290.873
-136.08 3.55079 289.44
-135.779 3.54922 289.359
196.838 -97.8233 323.165
197.114 -97.821 323.086
196.581 -98.2553 323.773
196.857 -98.2529 323.694
197.961 -98.2437 323.376
192.956 -97.0023 323.22
193.23 -96.9997 323.141
194.893 -97.4118 323.193
195.168 -97.4093 323.113
197.094 -97.3929 322.56
188.565 -96.6214 323.963
188.557 -96.1958 323.437
188.83 -96.1928 323.357
184.735 -95.3926 323.497
185.007 -95.3892 323.418
185.554 -95.8061 323.784
185.826 -95.8028 323.705
187.46 -95.7837 323.229
188.012 -96.2019 323.595
189.087 -95.3431 322.231
189.64 -95.76 322.596
190.195 -96.1783 322.961
190.469 -96.1755 322.882
194.328 -96.9895 322.825
197.35 -96.964 321.956
197.625 -96.9619 321.878
191.277 -95.7435 322.122
192.929 -96.1515 322.171
193.203 -96.149 322.092
185.822 -95.3794 323.18
186.094 -95.3762 323.101
186.643 -95.7931 323.467
186.915 -95.79 323.387
187.187 -95.7868 323.308
190.458 -95.7517 322.359
190.731 -95.7489 322.28
191.004 -95.7462 322.201
181.212 -94.5941 323.481
179.603 -93.3588 322.392
179.872 -93.3552 322.313
180.141 -93.3516 322.234
183.647 -94.5626 322.768
183.918 -94.5593 322.689
176.898 -94.2352 324.23
177.167 -94.2311 324.15
177.175 -93.8114 323.627
177.444 -93.8074 323.547
177.713 -93.8035 323.468
177.982 -93.7995 323.389
181.219 -93.3374 321.919
181.488 -93.334 321.84
171.636 -90.9929 321.66
171.902 -90.9887 321.581
177.727 -92.9682 322.427
177.996 -92.9644 322.348
178.527 -93.3737 322.709
178.796 -93.3699 322.63
178.801 -92.9532 322.111
179.07 -92.9495 322.032
180.414 -92.9316 321.637
180.683 -92.9281 321.559
182.565 -93.7378 322.043
166.961 -89.0303 320.517
172.42 -91.3918 321.938
172.686 -91.3876 321.859
174.274 -91.7754 321.901
174.541 -91.7714 321.823
169.261 -90.6216 321.856
169.527 -90.6171 321.777
169.792 -90.6127 321.698
170.058 -90.6083 321.619
171.37 -90.9972 321.739
170.606 -90.1902 320.948
167.711 -89.8304 321.303
167.975 -89.8258 321.224
168.24 -89.8213 321.145
168.505 -89.8169 321.066
172.449 -90.5701 320.91
172.714 -90.566 320.831
172.98 -90.5619 320.753
173.246 -90.5579 320.674
159.451 -87.5554 320.765
159.712 -87.5502 320.686
159.974 -87.5451 320.607
160.236 -87.54 320.528
164.638 -88.2625 320.207
164.663 -87.8596 319.699
165.883 -89.4552 321.343
166.147 -89.4505 321.264
165.451 -87.8458 319.464
165.713 -87.8413 319.386
167.182 -89.8395 321.461
170.323 -90.6039 321.54
170.341 -90.1945 321.027
159.157 -87.9636 321.353
159.189 -87.5606 320.843
160.729 -87.9325 320.879
161.224 -88.3261 321.231
161.777 -87.9123 320.564
162.04 -87.9074 320.485
162.826 -87.8927 320.249
163.089 -87.8879 320.17
163.351 -87.8831 320.092
163.613 -87.8783 320.013
164.588 -89.0723 321.226
163.902 -87.4717 319.428
161.515 -87.9173 320.642
154.821 -86.8496 321.17
155.305 -87.2399 321.52
155.566 -87.2343 321.441
155.603 -86.8329 320.933
157.881 -87.5871 321.238
157.915 -87.1851 320.73
158.176 -87.1797 320.651
158.895 -87.9689 321.432
161.021 -87.5248 320.292
156.313 -87.6201 321.714
155.677 -86.0339 319.92
156.681 -86.4111 320.11
156.941 -86.4057 320.032
148.427 -83.8257 319.185
149.108 -84.5955 319.952
152.082 -85.7142 320.518
152.341 -85.7085 320.439
161.603 -86.7138 319.124
161.864 -86.709 319.045
149.154 -84.2011 319.45
147.207 -85.4316 321.517
147.465 -85.4253 321.437
148.454 -85.7986 321.627
147.237 -83.0721 318.578
149.411 -84.1953 319.371
149.245 -83.4161 318.45
149.714 -83.7964 318.792
151.563 -85.7259 320.676
151.822 -85.72 320.597
152.206 -84.5261 319.008
155.937 -86.0285 319.841
155.973 -85.6309 319.337
148.334 -84.6136 320.189
148.17 -83.8316 319.263
150.185 -84.1778 319.135
150.443 -84.172 319.057
152.941 -84.9041 319.274
146.063 -84.2743 320.396
146.948 -85.438 321.596
146.467 -83.0901 318.814
146.932 -83.4693 319.156
152.464 -84.5205 318.93
153.239 -84.504 318.695
152.981 -84.5095 318.773
151.948 -84.5317 319.087
142.783 -82.0144 318.498
143.443 -82.774 319.258
143.903 -83.1522 319.601
143.955 -82.7613 319.101
144.416 -83.1395 319.443
144.672 -83.1332 319.364
144.519 -82.3593 318.446
144.775 -82.3531 318.367
139.131 -80.9504 318.188
139.385 -80.9438 318.109
140.459 -80.5332 317.302
140.712 -80.5269 317.224
141.962 -82.4225 319.232
142.218 -82.416 319.153
141.872 -81.2654 317.82
142.127 -81.2591 317.742
138.234 -80.2075 317.513
138.488 -80.201 317.435
136.714 -80.2474 317.984
137.159 -80.6184 318.321
139.56 -79.7926 316.631
140.008 -80.1624 316.966
135.7 -80.2747 318.298
135.954 -80.2678 318.22
136.59 -81.0177 318.975
137.037 -81.3908 319.314
137.606 -80.9904 318.659
137.667 -80.6049 318.164
137.921 -80.5983 318.085
138.174 -80.5916 318.007
139.443 -80.5589 317.615
140.09 -81.3103 318.369
130.087 -79.2886 318.628
130.339 -79.2812 318.549
131.096 -79.2594 318.312
131.348 -79.2521 318.233
131.485 -78.4906 317.25
131.92 -78.8565 317.583
132.981 -79.9677 318.67
133.047 -79.5845 318.176
133.3 -79.5774 318.097
133.927 -80.3235 318.85
134.18 -80.3165 318.771
134.058 -79.5564 317.861
134.375 -79.1678 317.29
134.816 -79.5357 317.625
135.068 -79.5289 317.547
128.573 -79.3334 319.102
128.109 -77.8336 317.368
128.36 -77.8262 317.29
129.15 -78.9363 318.45
128.683 -77.4414 316.722
128.934 -77.4342 316.644
131.417 -78.8708 317.741
132.172 -78.8495 317.505
130.409 -78.8996 318.055
130.661 -78.8923 317.977
134.123 -79.1747 317.369
124.173 -77.5762 318.138
124.597 -77.9395 318.472
124.158 -76.454 316.749
127.004 -77.1157 316.783
128.321 -79.341 319.182
123.251 -77.2294 317.963
123.501 -77.2216 317.884
123.58 -76.8448 317.394
122.75 -77.2451 318.121
123.171 -77.6075 318.455
125.176 -77.5454 317.822
125.601 -77.9086 318.156
126.529 -78.2576 318.332
126.604 -77.8782 317.84
127.032 -78.2424 318.174
127.46 -78.6076 318.509
122.33 -76.8837 317.789
124.407 -76.4464 316.671
