# .PCD v0.7 - Point Cloud Data file format
VERSION 0.7
FIELDS x y z
SIZE 4 4 4
TYPE F F F
COUNT 1 1 1
WIDTH 1658
HEIGHT 1
VIEWPOINT 0 0 0 1 0 0 0
POINTS 1658
DATA ascii
-12.8719 9.17189 45.5369
-12.7523 9.21104 45.4396
-12.72 9.20937 45.4362
-12.3868 9.28223 45.2328
-12.3548 9.28058 45.2295
-12.2695 9.25376 45.2624
-12.1205 9.29092 45.1629
-12.1099 9.31272 45.12
-11.9935 9.35129 45.0245
-11.8033 9.34154 45.0044
-11.4674 9.36877 44.8858
-11.322 9.4055 44.7878
-11.2279 9.40075 44.7777
-11.2183 9.42223 44.7356
-11.0334 9.47856 44.593
-10.9089 9.47228 44.5797
-10.766 9.50864 44.4829
-10.6112 9.50088 44.4662
-10.5803 9.49934 44.4629
-10.5667 9.53117 44.4006
-10.5403 9.51902 44.418
-10.5313 9.54022 44.3766
-10.5094 9.51749 44.4147
-10.5004 9.53867 44.3732
-10.4875 9.49473 44.4528
-10.4696 9.53714 44.3699
-10.4477 9.51441 44.408
-10.4343 9.54618 44.3459
-10.4168 9.51288 44.4046
-10.3156 9.52948 44.3532
-10.2673 9.5702 44.2673
-10.2366 9.56867 44.264
-10.1445 9.56411 44.254
-10.1138 9.5626 44.2506
-10.0832 9.56108 44.2473
-10.0355 9.60165 44.1618
-9.98793 9.64208 44.0766
-9.95742 9.64056 44.0733
-9.86597 9.63604 44.0633
-9.84385 9.6136 44.1008
-9.83134 9.64499 44.0396
-9.82171 9.59112 44.1384
-9.80506 9.63304 44.0567
-9.79121 9.58963 44.135
-9.78291 9.6106 44.0942
-9.71378 9.62855 44.0467
-9.68337 9.62706 44.0433
-9.65298 9.62557 44.04
-9.64481 9.64647 43.9993
-9.60633 9.66584 43.9553
-9.58411 9.64349 43.9926
-9.57601 9.66435 43.952
-9.56186 9.62112 44.0299
-9.54973 9.65244 43.9689
-9.53151 9.61965 44.0266
-9.51138 9.6718 43.925
-9.49314 9.63906 43.9826
-9.47711 9.68073 43.9014
-9.45484 9.65843 43.9386
-9.44686 9.67925 43.8981
-9.42458 9.65696 43.9353
-9.41662 9.67777 43.8948
-9.39432 9.65549 43.9319
-9.36408 9.65402 43.9286
-9.30363 9.65109 43.9219
-9.29186 9.68228 43.8612
-9.25779 9.6912 43.8377
-9.24999 9.71194 43.7973
-9.22764 9.68974 43.8343
-9.20825 9.74151 43.7336
-9.1975 9.68827 43.831
-9.16663 9.77101 43.6701
-9.12957 9.70609 43.784
-9.1219 9.72679 43.7437
-9.10716 9.68391 43.8209
-9.09185 9.72533 43.7404
-9.06943 9.70318 43.7773
-9.058 9.73421 43.717
-9.03177 9.72242 43.7337
-9.02041 9.7534 43.6735
-9.00933 9.70028 43.7706
-8.9942 9.74163 43.6902
-8.97929 9.69884 43.7672
-8.97174 9.71953 43.7271
-8.94174 9.71808 43.7237
-8.93049 9.74904 43.6635
-8.91175 9.71664 43.7204
-8.90054 9.7476 43.6602
-8.87432 9.73584 43.6769
-8.79968 9.77416 43.5902
-8.77716 9.75214 43.6269
-8.76614 9.783 43.5669
-8.73995 9.77128 43.5836
-8.73264 9.79183 43.5437
-8.7101 9.76985 43.5802
-8.69918 9.80065 43.5204
-8.68026 9.76842 43.5769
-8.673 9.78896 43.537
-8.65768 9.74642 43.6135
-8.64681 9.77726 43.5536
-8.62061 9.76556 43.5702
-8.60981 9.79635 43.5105
-8.58362 9.78467 43.527
-8.57287 9.81541 43.4674
-8.55385 9.78325 43.5237
-8.54314 9.81398 43.4641
-8.53121 9.7613 43.5602
-8.50986 9.82279 43.4409
-8.50143 9.75988 43.5568
-8.48015 9.82137 43.4376
-8.45046 9.81995 43.4342
-8.44342 9.84038 43.3946
-8.41376 9.83896 43.3913
-8.39111 9.81711 43.4276
-8.37541 9.77476 43.5036
-8.35796 9.82592 43.4044
-8.34571 9.77335 43.5003
-8.32485 9.83471 43.3813
-8.31602 9.77195 43.4969
-8.29869 9.8231 43.3978
-8.28633 9.77055 43.4935
-8.26562 9.83189 43.3747
-8.24289 9.81007 43.4109
-8.22575 9.86105 43.3121
-8.21327 9.80867 43.4075
-8.19961 9.84947 43.3285
-8.18367 9.80728 43.4042
-8.16666 9.85824 43.3055
-8.15408 9.80588 43.4008
-8.13713 9.85684 43.3021
-8.11098 9.84527 43.3185
-8.10087 9.87577 43.2594
-8.08818 9.8235 43.3546
-8.07474 9.86422 43.2758
-8.05864 9.82211 43.3512
-8.04525 9.86282 43.2724
-8.02911 9.82072 43.3479
-8.01577 9.86143 43.2691
-7.99293 9.8397 43.3051
-7.98298 9.8702 43.2461
-7.96345 9.83832 43.3018
-7.95353 9.86881 43.2428
-7.92738 9.85727 43.2591
-7.9208 9.87757 43.2198
-7.89794 9.85589 43.2557
-7.89139 9.87618 43.2164
-7.86851 9.85451 43.2524
-7.86198 9.8748 43.2131
-7.83908 9.85313 43.249
-7.83258 9.87342 43.2097
-7.80967 9.85175 43.2456
-7.80319 9.87205 43.2064
-7.77381 9.87067 43.2031
-7.74444 9.8693 43.1997
-7.71508 9.86793 43.1963
-7.68573 9.86656 43.193
-3.03922 9.6737 42.6172
-3.01362 9.65266 42.6514
-3.01112 9.67267 42.6135
-2.99798 9.5511 42.8382
-2.98924 9.62155 42.7047
-2.97723 9.4894 42.9493
-2.9648 9.59039 42.758
-2.95638 9.42743 43.061
-2.93908 9.56924 42.7924
-2.92803 9.42643 43.0572
-2.91211 9.55815 42.8077
-2.90947 9.34372 43.2081
-2.89117 9.49651 42.9187
-2.88104 9.34273 43.2042
-2.86291 9.49551 42.9149
-2.85503 9.32123 43.2391
-2.83943 9.45394 42.9879
-2.83859 9.21725 43.4302
-2.81705 9.40206 43.0803
-2.81003 9.21627 43.4263
-2.7946 9.35 43.1732
-2.79097 9.13234 43.5794
-2.77089 9.30801 43.2469
-2.75998 9.15215 43.5361
-2.74361 9.29676 43.2624
-2.73137 9.15118 43.5321
-2.71978 9.25463 43.3364
-2.71202 9.06688 43.6859
-2.69817 9.19169 43.4497
-2.69487 8.96102 43.8803
-2.6776 9.11806 43.5832
-2.66607 8.96007 43.8763
-2.65124 9.09627 43.6187
-2.62822 9.0431 43.7135
-2.61812 9.13694 43.536
-2.62657 8.78862 44.1889
-2.60735 8.9687 43.8483
-2.59984 8.76634 44.2252
-2.5808 8.94669 43.8841
-2.57532 8.72262 44.302
-2.55311 8.93521 43.9
-2.54627 8.7217 44.2979
-2.52867 8.89203 43.9758
-2.52824 8.61321 44.4971
-2.50959 8.79556 44.1524
-2.49909 8.61229 44.4929
-2.48496 8.75195 44.2289
-2.4721 8.58976 44.5296
-2.45704 8.74034 44.245
-2.44723 8.54552 44.6073
-2.43122 8.7073 44.3016
-2.42868 8.43568 44.8089
-2.40429 8.68493 44.338
-2.39935 8.43478 44.8047
-2.3794 8.641 44.4151
-2.37422 8.39007 44.8832
-2.35547 8.58614 44.5129
-2.34692 8.36722 44.9204
-2.32939 8.55276 44.57
-2.31754 8.36634 44.9162
-2.30529 8.49756 44.6684
-2.29222 8.32143 44.995
-2.27806 8.47489 44.7053
-2.26883 8.25424 45.116
-2.25678 8.38653 44.8662
-2.24133 8.23119 45.1535
-2.22842 8.37467 44.8826
-2.22173 8.11891 45.3595
-2.20494 8.30777 45.003
-2.19209 8.11805 45.3551
-2.17648 8.29586 45.0195
-2.16634 8.07237 45.4353
-2.15377 8.21749 45.1615
-2.14437 7.98143 45.6009
-2.12711 8.18328 45.2201
-2.11651 7.95798 45.6392
-2.10415 8.10429 45.3631
-2.09049 7.9118 45.7203
-2.07733 8.06982 45.4222
-2.06251 7.88824 45.7587
-2.05228 8.01275 45.5238
-2.0345 7.86464 45.7972
-2.02256 8.01191 45.5194
-2.01009 7.7953 45.9219
-1.99826 7.94331 45.6428
-1.98194 7.77156 45.9606
-1.97026 7.91981 45.6811
-1.95375 7.74779 45.9994
-1.9431 7.88492 45.7408
-1.92903 7.6779 46.1251
-1.91849 7.81571 45.8653
-1.9042 7.60766 46.2514
-1.89031 7.79202 45.9039
-1.87578 7.58363 46.2906
-1.86548 7.72237 46.0291
-1.85073 7.51294 46.4177
-1.83716 7.69853 46.068
-1.82049 7.51214 46.4131
-1.80879 7.67467 46.1069
-1.7886 7.53469 46.3645
-1.78284 7.61605 46.2112
-1.76329 7.46377 46.492
-1.75435 7.59206 46.2504
-1.73784 7.39251 46.6201
-1.73141 7.4864 46.4433
-1.71707 7.24967 46.883
-1.7067 7.4035 46.5933
-1.68814 7.22509 46.9231
-1.68028 7.34377 46.6997
-1.66072 7.17656 47.0083
-1.65142 7.31935 46.7395
-1.63014 7.17581 47.0036
-1.62177 7.30674 46.7571
-1.59957 7.17505 46.9988
-1.59135 7.30597 46.7524
-1.5779 7.03004 47.2656
-1.56606 7.22205 46.9042
-1.54718 7.0293 47.2608
-1.53844 7.17354 46.9893
-1.52221 6.93155 47.4385
-1.51287 7.08884 47.1426
-1.49281 6.90646 47.4795
-1.48433 7.05196 47.2058
-1.46196 6.90573 47.4747
-1.45434 7.03916 47.2237
-1.43521 6.83168 47.6077
-1.42568 7.00216 47.287
-1.40833 6.75725 47.7415
-1.39695 6.96508 47.3506
-1.37865 6.73188 47.7829
-1.37076 6.87916 47.506
-1.34892 6.70647 47.8244
-1.34183 6.84177 47.57
-1.31915 6.68103 47.866
-1.31157 6.82881 47.5882
-1.29182 6.60584 48.0011
-1.28437 6.75441 47.7218
-1.26556 6.50521 48.1839
-1.25641 6.692 47.8329
-1.23551 6.47943 48.2261
-1.22656 6.66654 47.8744
-1.20657 6.42842 48.3156
-1.19839 6.60376 47.9861
-1.17639 6.40251 48.358
-1.1701 6.54071 48.0983
-1.14616 6.37657 48.4004
-1.13946 6.52752 48.1168
-1.11916 6.27435 48.5861
-1.11096 6.46414 48.2296
-1.08767 6.27369 48.581
-1.08181 6.41311 48.3191
-1.05723 6.24753 48.6237
-1.05204 6.37456 48.3852
-1.02979 6.14442 48.811
-1.0237 6.29782 48.5229
-1.00016 6.09226 48.9025
-0.993237 6.27172 48.5656
-0.969446 6.0658 48.9458
-0.964158 6.20724 48.6803
-0.939624 6.01337 49.0378
-0.934948 6.14248 48.7955
-0.908782 5.98678 49.0813
-0.904701 6.10324 48.8628
-0.87877 5.93408 49.1738
-0.875248 6.03802 48.9788
-0.847796 5.90735 49.2176
-0.844388 6.01148 49.0222
-0.817593 5.85438 49.3105
-0.813885 5.9719 49.09
-0.788882 5.74848 49.5027
-0.783697 5.91917 49.1825
-0.759956 5.6418 49.6964
-0.75455 5.82691 49.3492
-0.727812 5.64121 49.691
-0.723361 5.8 49.3932
-0.695677 5.64061 49.6856
-0.692473 5.75987 49.462
-0.666982 5.50633 49.9309
-0.663207 5.65332 49.6553
-0.636023 5.45192 50.0264
-0.632734 5.58611 49.7748
-0.604317 5.42436 50.0715
-0.600556 5.58553 49.7695
-0.572558 5.39675 50.1168
-0.569571 5.53143 49.8644
-0.540742 5.3691 50.1621
-0.537345 5.53085 49.8589
-0.510489 5.25967 50.3605
-0.507526 5.40914 50.0805
-0.478466 5.23177 50.4063
-0.475676 5.38152 50.1257
-0.445433 5.25856 50.3495
-0.443531 5.36741 50.1456
-0.415599 5.09318 50.6527
-0.411806 5.32613 50.2164
-0.383732 5.03728 50.7508
-0.381649 5.17529 50.4924
-0.351357 5.00899 50.7972
-0.349432 5.14726 50.5383
-0.319632 4.92486 50.9481
-0.317509 5.09158 50.636
-0.286756 4.92434 50.9424
-0.285467 5.03569 50.734
-0.253883 4.92382 50.9368
-0.253015 5.00741 50.7803
-0.221534 4.86731 51.0359
-0.220762 4.95122 50.8789
-0.189061 4.81059 51.1354
-0.188048 4.93675 50.8993
-0.156464 4.75367 51.2353
-0.155597 4.88031 50.9983
-0.123423 4.75317 51.2296
-0.122783 4.86578 51.0189
-0.0912751 4.55346 51.5965
-0.0905142 4.72438 51.2768
-0.058012 4.55298 51.5907
-0.0576388 4.66714 51.3771
-0.0248186 4.52382 51.6385
-0.0245786 4.6382 51.4246
0.00836097 4.40806 51.8482
0.00854278 4.60921 51.4721
0.041771 4.4076 51.8424
0.0417254 4.58016 51.5197
0.0752593 4.34916 51.9449
0.0751526 4.4216 51.8095
0.109037 4.23206 52.157
0.108724 4.3487 51.939
0.142859 4.17295 52.2607
0.142349 4.30462 52.0147
0.176664 4.14309 52.3098
0.175925 4.2896 52.036
0.210532 4.11317 52.3589
0.210072 4.18676 52.2214
0.244683 4.05361 52.4633
0.244024 4.14222 52.2978
0.279226 3.96405 52.6238
0.278585 4.03837 52.485
0.31398 3.87396 52.7853
0.312805 3.9934 52.5622
0.34795 3.87355 52.7792
0.346472 4.00784 52.5284
0.381547 3.90309 52.7172
0.38064 3.97769 52.5779
0.417482 3.75234 52.9918
0.415069 3.93256 52.6553
0.453793 3.60007 53.2692
0.451133 3.78213 52.9293
0.487572 3.63019 53.2061
0.485895 3.73643 53.0078
0.522308 3.59931 53.2568
0.520501 3.70577 53.0581
0.557668 3.53775 53.3648
0.55545 3.65985 53.1369
0.59497 3.38335 53.6459
0.592277 3.52205 53.3871
0.629457 3.38299 53.6397
0.626603 3.52168 53.3809
0.665967 3.28945 53.8072
0.662926 3.429 53.5469
0.700549 3.28911 53.8009
0.698053 3.39775 53.5982
0.737389 3.19501 53.9694
0.73437 3.31988 53.7365
0.772864 3.1633 54.0215
0.770481 3.25723 53.8464
0.810085 3.06844 54.1914
0.806324 3.21 53.9275
0.846659 3.00477 54.303
0.842273 3.16263 54.0088
0.878788 3.09936 54.1197
0.876968 3.1623 54.0024
0.918327 2.94054 54.4087
0.913548 3.09904 54.1133
0.953268 2.94023 54.4022
0.949785 3.05134 54.1952
0.990279 2.87606 54.5148
0.986132 3.00351 54.2773
1.02853 2.77947 54.6876
1.02636 2.84373 54.5679
1.06703 2.68227 54.8616
1.06251 2.81134 54.6212
1.10224 2.68199 54.855
1.10049 2.73052 54.7647
1.14232 2.55156 55.0908
1.13503 2.74637 54.7281
1.1802 2.4858 55.2062
1.17641 2.58393 55.0234
1.22087 2.35371 55.4449
1.21497 2.50193 55.169
1.2578 2.32033 55.4999
1.25305 2.43598 55.2846
1.29762 2.22026 55.679
1.2913 2.36975 55.4007
1.33478 2.18661 55.7344
1.32828 2.33641 55.4556
1.37202 2.15289 55.7899
1.36755 2.25313 55.6034
1.41398 2.01799 56.0337
1.4078 2.15266 55.7831
1.4531 1.95 56.1529
1.44357 2.15244 55.7764
1.49239 1.88173 56.2727
1.48419 2.05134 55.9572
1.52846 1.88153 56.2658
1.52174 2.01736 56.0132
1.56625 1.84719 56.3224
1.56107 1.94939 56.1323
1.60591 1.7785 56.4428
1.60147 1.86408 56.2837
1.64941 1.6404 56.6922
1.64208 1.77831 56.4359
1.68385 1.67482 56.6209
1.67731 1.79528 56.397
1.76825 1.4658 56.9947
1.7623 1.57049 56.8002
1.81087 1.36027 57.1835
1.80476 1.46565 56.9877
1.84541 1.39533 57.1109
1.84022 1.48299 56.9481
1.89052 1.25391 57.3663
1.88092 1.41276 57.0712
1.92726 1.25378 57.3591
1.92181 1.34222 57.1949
1.97746 1.03935 57.7499
1.96957 1.16471 57.5171
2.01674 1.00325 57.8095
2.00868 1.12888 57.5762
2.05374 1.00314 57.8022
2.04671 1.11088 57.6022
2.09796 0.894569 57.9963
2.08835 1.03903 57.7282
2.13508 0.894478 57.989
2.13018 0.966868 57.8547
2.17721 0.821672 58.1167
2.16721 0.96677 57.8474
2.21952 0.748544 58.2449
2.21567 0.803359 58.1431
2.27258 0.527316 58.6478
2.25679 0.748469 58.2375
2.30472 0.601317 58.503
2.29538 0.730085 58.2641
2.39071 0.452779 58.7633
2.38512 0.527162 58.6254
2.43685 0.340517 58.9639
2.42972 0.434087 58.7904
2.49511 0.0755703 59.4476
2.47166 0.377976 58.8869
2.53313 0.0755675 59.4399
2.51671 0.284062 59.0534
2.57419 0.0373687 59.5031
2.55296 0.302855 59.011
2.61223 0.0373709 59.4954
2.59222 0.284012 59.0383
2.65027 0.0373731 59.4877
2.63462 0.227412 59.1356
2.6883 0.0373741 59.4801
2.67243 0.227394 59.128
2.72632 0.0373763 59.4724
2.71023 0.227375 59.1204
2.76434 0.0373785 59.4647
2.73995 0.321509 58.9384
2.79571 0.113634 59.3158
2.78089 0.283891 59.0005
2.89902 -0.625634 60.6772
2.82859 0.170576 59.2027
2.94496 -0.705357 60.817
2.93779 -0.625559 60.6693
2.98382 -0.705274 60.809
2.97836 -0.645397 60.6982
3.02267 -0.705191 60.8011
3.00981 -0.56583 60.5431
3.06151 -0.705108 60.7931
3.05035 -0.585596 60.5719
3.10035 -0.705027 60.7851
3.07783 -0.466895 60.3444
3.13917 -0.704943 60.7771
3.11638 -0.466839 60.3365
3.17799 -0.704861 60.7691
3.14541 -0.368599 60.147
3.21681 -0.704779 60.7612
3.19345 -0.466725 60.3208
3.25561 -0.704696 60.7532
3.22418 -0.388092 60.1676
3.2904 -0.664706 60.6714
3.2705 -0.466613 60.305
3.32914 -0.664627 60.6634
3.30901 -0.466556 60.2972
3.36788 -0.664549 60.6555
3.34549 -0.446825 60.2529
3.40661 -0.664472 60.6475
3.38193 -0.427124 60.2088
3.44533 -0.664394 60.6396
3.41831 -0.407449 60.1646
3.48405 -0.664317 60.6317
3.46299 -0.46633 60.2657
3.51848 -0.624453 60.5502
3.49724 -0.426967 60.1852
3.55282 -0.584695 60.4689
3.5208 -0.290099 59.9246
3.59578 -0.624307 60.5343
3.55906 -0.290061 59.9168
3.63884 -0.664007 60.5999
3.59947 -0.309493 59.945
3.6686 -0.584488 60.4452
3.63774 -0.309454 59.9372
3.70718 -0.58442 60.4373
3.67821 -0.328904 59.9654
3.74575 -0.584351 60.4294
3.72543 -0.407048 60.102
3.78432 -0.584283 60.4215
3.76153 -0.387418 60.058
3.82288 -0.584213 60.4136
3.78392 -0.250983 59.7984
3.86143 -0.584145 60.4057
3.82209 -0.250948 59.7907
3.89998 -0.584076 60.3978
3.86256 -0.270324 59.8187
3.93852 -0.584008 60.3899
3.90073 -0.270288 59.811
3.97705 -0.583939 60.382
3.95787 -0.42634 60.0912
4.01557 -0.583871 60.3741
3.99622 -0.426288 60.0834
4.04919 -0.544267 60.2933
4.00801 -0.212044 59.6805
4.08765 -0.544203 60.2854
4.04851 -0.231367 59.7084
4.12611 -0.544139 60.2776
4.08416 -0.211983 59.665
4.15954 -0.504648 60.197
4.1247 -0.231302 59.6929
4.19794 -0.504588 60.1891
4.16776 -0.270036 59.7567
4.23633 -0.504528 60.1813
4.20337 -0.250607 59.7132
4.27988 -0.543883 60.2461
4.244 -0.269963 59.7412
4.31831 -0.543819 60.2382
4.27699 -0.231173 59.662
4.35673 -0.543755 60.2304
4.32021 -0.26989 59.7257
4.39514 -0.543691 60.2225
4.36876 -0.347623 59.8613
4.43355 -0.543627 60.2147
4.39114 -0.231076 59.6388
4.46656 -0.504169 60.1342
4.42653 -0.211709 59.5955
4.49948 -0.464813 60.054
4.46187 -0.192369 59.5522
4.53777 -0.464756 60.0462
4.50523 -0.230978 59.6157
4.58158 -0.503988 60.1107
4.53242 -0.153769 59.4658
4.61991 -0.503928 60.1029
4.57307 -0.173002 59.4936
4.65823 -0.50387 60.0951
4.61101 -0.172975 59.4859
4.69089 -0.464533 60.0149
4.64341 -0.134464 59.4074
4.72916 -0.464477 60.0071
4.68687 -0.172921 59.4705
4.77316 -0.50369 60.0716
4.73891 -0.26949 59.6406
4.80567 -0.464366 59.9915
4.77408 -0.250089 59.5972
4.84392 -0.46431 59.9837
4.80061 -0.17284 59.4474
4.87629 -0.425093 59.9038
4.83276 -0.134347 59.369
4.91448 -0.425041 59.896
4.87351 -0.153543 59.3967
4.95862 -0.464144 59.9602
4.91138 -0.153517 59.389
4.99684 -0.464088 59.9524
4.96105 -0.230585 59.5231
5.03506 -0.464032 59.9446
5.01395 -0.327429 59.6935
5.07327 -0.463977 59.9368
5.04898 -0.307966 59.65
5.10533 -0.424782 59.8571
5.05678 -0.115017 59.2877
5.14348 -0.42473 59.8493
5.09155 -0.0958308 59.2448
5.18163 -0.424679 59.8415
5.14458 -0.191845 59.4137
5.21977 -0.424627 59.8337
5.18246 -0.191816 59.406
5.2579 -0.424575 59.826
5.22032 -0.191786 59.3983
5.29603 -0.424523 59.8182
5.25818 -0.191757 59.3906
5.33416 -0.424472 59.8104
5.29604 -0.191728 59.3829
5.37227 -0.42442 59.8026
5.31807 -0.095709 59.1989
5.4039 -0.385353 59.7232
5.3558 -0.0956874 59.1913
5.43545 -0.346386 59.644
5.40314 -0.153181 59.2893
5.48002 -0.385256 59.7077
5.42803 -0.0765225 59.1409
5.51147 -0.346298 59.6285
5.48196 -0.172343 59.3092
5.55611 -0.385161 59.6922
5.52633 -0.210807 59.3722
5.58746 -0.346209 59.613
5.54109 -0.0764651 59.118
5.62545 -0.346165 59.6053
5.57547 -0.0573511 59.0754
5.66343 -0.34612 59.5975
5.60649 -0.0192153 58.9978
5.70141 -0.346076 59.5898
5.66754 -0.152997 59.2356
5.73252 -0.307236 59.5109
5.6884 -0.0572977 59.0525
5.77045 -0.307195 59.5032
5.72604 -0.0572798 59.0449
5.80836 -0.307154 59.4955
5.75346 -0.000139778 58.9325
5.85326 -0.345899 59.5589
5.80129 -0.0572442 59.0297
5.89121 -0.345854 59.5511
5.84236 -0.0763085 59.057
5.91502 -0.268346 59.4014
5.8523 0.0757279 58.7708
5.95287 -0.268308 59.3937
5.89322 0.0568121 58.7979
5.99071 -0.268271 59.386
5.93419 0.0378776 58.825
6.02855 -0.268234 59.3783
5.9752 0.0189234 58.8522
6.06639 -0.268197 59.3706
6.0127 0.0189348 58.8446
6.10422 -0.26816 59.363
6.0502 0.0189473 58.837
6.14204 -0.268122 59.3553
6.08769 0.0189588 58.8295
6.17986 -0.268084 59.3476
6.13603 -0.0380339 58.9263
6.21767 -0.268047 59.3399
6.19922 -0.171804 59.1637
6.24804 -0.229447 59.2616
6.1965 0.0379473 58.772
6.2858 -0.229414 59.2539
6.23028 0.056888 58.7298
6.32356 -0.229379 59.2462
6.27139 0.0379686 58.7569
6.3613 -0.229345 59.2386
6.31628 6.01054e-05 58.8187
6.39905 -0.229312 59.2309
6.34628 0.0379899 58.7418
6.43679 -0.229277 59.2232
6.3762 0.0758241 58.665
6.47452 -0.229243 59.2156
6.41359 0.0758316 58.6575
6.50452 -0.190761 59.1376
6.44718 0.094714 58.6154
6.5422 -0.190731 59.1299
6.48834 0.0758466 58.6424
6.57988 -0.190699 59.1223
6.52188 0.0947264 58.6003
6.62541 -0.229106 59.1849
6.56308 0.0758627 58.6273
6.66312 -0.229071 59.1772
6.6238 -0.0378086 58.8276
6.70083 -0.229037 59.1696
6.66128 -0.0377911 58.82
6.73054 -0.190576 59.0917
6.67515 0.0758875 58.6046
6.76819 -0.190545 59.084
6.71249 0.075895 58.5971
6.80584 -0.190514 59.0764
6.74984 0.0759036 58.5896
6.84348 -0.190483 59.0688
6.77127 0.151222 58.4444
6.88112 -0.190451 59.0611
6.8165 0.113617 58.5056
6.91875 -0.190421 59.0535
6.8699 0.0381481 58.636
6.95638 -0.190389 59.0458
6.88703 0.13244 58.4562
6.994 -0.190357 59.0382
6.94463 0.0381716 58.6209
7.03162 -0.190327 59.0305
6.97379 0.0759564 58.5443
7.06087 -0.151989 58.953
7.01111 0.075965 58.5368
7.09843 -0.15196 58.9453
7.05669 0.0382086 58.5982
7.136 -0.151932 58.9377
7.06086 0.188743 58.3159
7.16508 -0.113696 58.8604
7.10218 0.170007 58.3426
7.19409 -0.0755581 58.7832
7.14354 0.151251 58.3693
7.2401 -0.113646 58.8452
7.17655 0.17001 58.3276
7.2776 -0.113621 58.8376
7.21794 0.151258 58.3543
7.31509 -0.113596 58.83
7.26364 0.11369 58.4154
7.35259 -0.113571 58.8224
7.30515 0.0948801 58.4422
7.38136 -0.0754471 58.7453
7.31241 0.226136 58.1953
7.42756 -0.113519 58.8072
7.36239 0.170021 58.2901
7.46504 -0.113494 58.7996
7.3866 0.226133 58.1804
7.49367 -0.0753798 58.7225
7.41936 0.244789 58.1389
7.5311 -0.0753574 58.7149
7.46513 0.207451 58.1995
7.56852 -0.075335 58.7074
7.511 0.170033 58.2602
7.60594 -0.0753115 58.6998
7.55255 0.151295 58.2868
7.64336 -0.0752891 58.6922
7.572 0.226124 58.143
7.68077 -0.0752667 58.6846
7.63132 0.132544 58.306
7.71818 -0.0752432 58.677
7.65506 0.188759 58.1961
7.74646 -0.037243 58.6003
7.71017 0.113779 58.3252
7.78381 -0.0372232 58.5927
7.73378 0.170052 58.2153
7.82117 -0.0372035 58.5851
7.75279 0.244766 58.0717
7.85852 -0.0371826 58.5776
7.81257 0.15133 58.2344
7.89586 -0.0371629 58.57
7.8132 0.300558 57.9552
7.9332 -0.0371431 58.5625
7.85929 0.263378 58.0155
7.97054 -0.0371222 58.5549
7.94252 0.0762244 58.3486
8.00788 -0.0371014 58.5473
7.97505 0.0950482 58.3069
8.03576 0.000783514 58.4709
8.00755 0.113846 58.2652
8.07304 0.000800615 58.4633
8.03061 0.170086 58.1554
8.11032 0.000818859 58.4558
8.04423 0.263365 57.9782
8.1476 0.000835952 58.4482
8.07182 0.300518 57.9032
8.17527 0.0386188 58.372
8.09935 0.337581 57.8284
8.2125 0.0386333 58.3645
8.16465 0.226123 58.0236
8.24972 0.0386489 58.357
8.19212 0.263357 57.9484
8.28694 0.0386645 58.3494
8.21953 0.3005 57.8735
8.32416 0.038679 58.3419
8.2421 0.356047 57.7651
8.36137 0.0386946 58.3344
8.28375 0.337545 57.7913
8.40843 0.000962351 58.3954
8.34481 0.244752 57.9525
8.44568 0.000981698 58.3879
8.36718 0.300484 57.8437
8.46307 0.0763943 58.2434
8.38948 0.356015 57.7354
8.50022 0.0764073 58.2359
8.4508 0.263349 57.8963
8.50752 0.188838 58.0242
8.45337 0.392911 57.6536
8.57453 0.0764344 58.2209
8.51973 0.28192 57.8477
8.61167 0.0764474 58.2134
8.55167 0.300467 57.8066
8.65895 0.0388204 58.2742
8.59355 0.281916 57.8328
8.69613 0.0388371 58.2667
8.64049 0.244757 57.8929
8.7129 0.114034 58.1227
8.64228 0.374425 57.6501
8.74999 0.114044 58.1152
8.6841 0.355959 57.6762
8.78708 0.114055 58.1077
8.73102 0.318974 57.7359
8.82416 0.114066 58.1002
8.76279 0.33747 57.6949
8.86124 0.114078 58.0927
8.79962 0.337465 57.6875
8.89832 0.114089 58.0852
8.81603 0.41123 57.5462
8.92498 0.151543 58.0098
8.863 0.37438 57.6057
8.97247 0.114112 58.0702
8.90493 0.355923 57.6317
9.00954 0.114124 58.0627
8.94691 0.337448 57.6578
9.04661 0.114135 58.0552
8.96814 0.392787 57.5501
9.08367 0.114147 58.0478
9.03099 0.30044 57.7101
9.1101 0.151589 57.9724
9.06783 0.300438 57.7026
9.13647 0.188937 57.8973
9.08362 0.374342 57.5613
9.17344 0.188944 57.8898
9.12039 0.374336 57.5539
9.2104 0.188952 57.8824
9.14657 0.41115 57.4798
9.24737 0.188958 57.8749
9.18859 0.392744 57.5057
9.28433 0.188965 57.8674
9.22532 0.392737 57.4983
9.32129 0.188973 57.86
9.25136 0.4295 57.4243
9.35825 0.18898 57.8525
9.29341 0.411118 57.4502
9.3952 0.188989 57.845
9.31936 0.447833 57.3764
9.42119 0.226229 57.7702
9.36681 0.411103 57.4355
9.4581 0.226234 57.7627
9.38726 0.466141 57.3285
9.48399 0.263381 57.6881
9.42389 0.466131 57.3211
9.52085 0.263385 57.6806
9.4769 0.411083 57.4133
9.5688 0.226251 57.7404
9.48078 0.520954 57.2071
9.6057 0.226257 57.7329
9.52282 0.502682 57.2328
9.6426 0.226263 57.7255
9.55391 0.520926 57.1924
9.66826 0.263398 57.6509
9.60702 0.466081 57.2843
9.70511 0.263402 57.6435
9.64919 0.447753 57.3101
9.74196 0.263406 57.636
9.68026 0.466062 57.2696
9.7788 0.263411 57.6286
9.689 0.55732 57.0972
9.81564 0.263414 57.6212
9.72551 0.557304 57.0898
9.85248 0.263418 57.6137
9.80702 0.411031 57.3469
9.88931 0.263423 57.6063
9.83802 0.429381 57.3064
9.92615 0.263428 57.5989
9.87466 0.429375 57.299
9.96298 0.263433 57.5914
9.9056 0.4477 57.2585
9.99981 0.263438 57.584
9.95368 0.411013 57.3174
10.0366 0.263443 57.5766
9.93882 0.575404 57.013
10.0618 0.300465 57.5023
9.981 0.557207 57.0385
10.0986 0.300468 57.4949
10.029 0.520772 57.097
10.1471 0.263459 57.5543
10.1003 0.410996 57.2879
10.1721 0.300475 57.48
10.1021 0.520751 57.0823
10.2089 0.300478 57.4726
10.1444 0.502501 57.1079
10.2457 0.300482 57.4652
10.1985 0.447651 57.1995
10.2825 0.300486 57.4578
10.2058 0.538938 57.0274
10.3192 0.300489 57.4504
10.2305 0.575294 56.9544
10.344 0.337406 57.3763
10.2847 0.520702 57.0456
10.3808 0.337408 57.3689
10.3153 0.538906 57.0054
10.4175 0.33741 57.3615
10.3636 0.502451 57.0638
10.4542 0.337413 57.3541
10.3942 0.520675 57.0236
10.5031 0.300511 57.4133
10.4307 0.520667 57.0162
10.5276 0.337418 57.3393
10.4793 0.484178 57.0747
10.5644 0.337421 57.3319
10.5158 0.484172 57.0673
10.6011 0.337423 57.3245
10.5524 0.484166 57.06
10.6378 0.337427 57.3171
10.5768 0.520635 56.9869
10.6745 0.337429 57.3097
10.595 0.575177 56.8812
10.7112 0.337433 57.3023
10.662 0.48415 57.0379
10.7355 0.37424 57.2286
10.6618 0.593297 56.8339
10.7722 0.374241 57.2212
10.686 0.629502 56.7613
10.8088 0.374243 57.2138
10.7408 0.575136 56.8519
10.8455 0.374246 57.2064
10.7834 0.55697 56.8773
10.8822 0.374248 57.199
10.826 0.538784 56.9027
10.9188 0.37425 57.1916
10.8625 0.538777 56.8954
10.9555 0.374252 57.1842
10.8679 0.629439 56.7248
10.9921 0.374254 57.1768
10.9042 0.629427 56.7175
11.0288 0.374257 57.1695
10.9469 0.611324 56.7427
11.0655 0.37426 57.1621
10.9832 0.611315 56.7354
11.0893 0.410961 57.0886
11.0008 0.665508 56.6305
11.1259 0.410962 57.0813
11.0371 0.665494 56.6233
11.1497 0.447574 57.008
11.0545 0.719495 56.5188
11.1863 0.447573 57.0006
11.0845 0.737443 56.4792
11.2229 0.447572 56.9933
11.1334 0.701483 56.5366
11.2594 0.447572 56.9859
11.1824 0.665446 56.5941
11.296 0.447573 56.9785
11.2187 0.665434 56.5868
11.3325 0.447573 56.9712
11.2614 0.647381 56.6119
11.3561 0.484087 56.8982
11.2785 0.701428 56.5074
11.3795 0.520514 56.8253
11.2891 0.773202 56.3711
11.4291 0.484085 56.8834
11.3575 0.683406 56.5252
11.4656 0.484083 56.8761
11.4133 0.629285 56.6152
11.5021 0.484082 56.8687
11.4301 0.683383 56.5106
11.5387 0.484082 56.8614
11.4729 0.665358 56.5357
11.5752 0.484082 56.854
11.47 0.773122 56.3348
11.6117 0.484082 56.8467
11.5324 0.701342 56.4564
11.6482 0.484081 56.8393
11.5621 0.719302 56.4169
11.6847 0.484081 56.8319
11.6049 0.701321 56.4418
11.7212 0.484082 56.8246
11.6412 0.70131 56.4346
11.7577 0.484082 56.8172
11.6775 0.701299 56.4273
11.7807 0.520491 56.7445
11.7071 0.719256 56.3877
11.8172 0.520489 56.7372
11.7433 0.719245 56.3804
11.8673 0.484085 56.7951
11.7863 0.701268 56.4054
11.8901 0.520488 56.7225
11.8158 0.719224 56.3659
11.9266 0.520488 56.7151
11.852 0.719214 56.3586
11.9631 0.520488 56.7078
11.8883 0.719204 56.3513
11.9858 0.556802 56.6353
11.9449 0.665248 56.4408
12.0223 0.5568 56.628
11.9744 0.683243 56.4012
12.0587 0.556799 56.6206
11.9698 0.790812 56.201
12.0951 0.556798 56.6133
12.006 0.7908 56.1937
12.1315 0.556797 56.6059
12.0353 0.808645 56.1544
12.1679 0.556797 56.5986
12.0852 0.7729 56.2112
12.2044 0.556796 56.5913
12.1145 0.790765 56.1719
12.2408 0.556796 56.5839
12.1506 0.790753 56.1647
12.2772 0.556795 56.5766
12.173 0.826429 56.0935
12.2996 0.593011 56.5044
12.2091 0.826416 56.0862
12.336 0.59301 56.497
12.2591 0.790721 56.1429
12.3724 0.593009 56.4897
12.2883 0.808561 56.1036
12.3946 0.629136 56.4177
12.3036 0.861981 56.0007
12.4309 0.629134 56.4104
12.3536 0.826369 56.0572
12.4108 0.772813 56.1458
12.3687 0.879724 55.9544
12.5179 0.593007 56.4604
12.4258 0.826348 56.0427
12.5543 0.593007 56.4531
12.462 0.826337 56.0354
12.5906 0.593007 56.4457
12.5051 0.808501 56.06
12.6126 0.629126 56.3738
12.5413 0.808492 56.0528
12.649 0.629125 56.3664
12.5774 0.808483 56.0455
12.6853 0.629124 56.3591
12.5851 0.879649 55.9109
12.7217 0.629124 56.3518
12.6354 0.844092 55.9673
12.758 0.629124 56.3445
12.6715 0.844083 55.96
12.7944 0.629124 56.3371
12.7076 0.844074 55.9527
12.8161 0.665151 56.2654
12.7222 0.897347 55.8502
12.8524 0.665149 56.2581
12.7654 0.879595 55.8747
12.8887 0.665149 56.2508
12.787 0.915044 55.804
12.9103 0.701088 56.1792
12.8303 0.897314 55.8285
12.9466 0.701086 56.1719
12.8808 0.861809 55.8847
12.9829 0.701085 56.1646
12.9169 0.861801 55.8774
13.0191 0.701083 56.1573
12.9457 0.87955 55.8384
13.0554 0.701083 56.15
12.9671 0.914992 55.7678
13.0917 0.701082 56.1427
12.9885 0.950352 55.6974
13.1279 0.701082 56.1354
13.0392 0.914973 55.7534
13.1642 0.701081 56.1281
13.0826 0.897251 55.7777
13.1855 0.736928 56.0568
13.1039 0.932648 55.7073
13.2367 0.701081 56.1135
13.1473 0.914947 55.7316
13.273 0.701082 56.1061
13.1759 0.932631 55.6928
13.3093 0.701082 56.0988
13.2193 0.914932 55.7171
13.3304 0.736925 56.0276
13.2479 0.932614 55.6783
13.3667 0.736924 56.0203
13.3064 0.879479 55.7659
13.4029 0.736925 56.013
13.3424 0.879474 55.7586
13.4391 0.736925 56.0057
13.3785 0.879469 55.7514
13.4754 0.736925 55.9984
13.3995 0.914898 55.6809
13.4963 0.772681 55.9273
13.3978 1.00313 55.5163
13.5325 0.77268 55.92
13.4338 1.00312 55.509
13.5687 0.77268 55.9127
13.4773 0.985504 55.5332
13.6049 0.77268 55.9054
13.5208 0.967871 55.5574
13.6411 0.772681 55.8981
13.572 0.932555 55.6131
13.6773 0.772682 55.8908
13.5928 0.967858 55.5429
13.7135 0.772683 55.8835
13.6287 0.967852 55.5357
13.7497 0.772684 55.8762
13.6801 0.932542 55.5914
13.7859 0.772686 55.8689
13.7084 0.950199 55.5526
13.8065 0.80835 55.7981
13.7213 1.00306 55.4512
13.8426 0.80835 55.7908
13.7495 1.02064 55.4127
13.8788 0.808352 55.7835
13.7855 1.02063 55.4054
13.8993 0.843931 55.7129
13.8214 1.02062 55.3982
13.9354 0.843931 55.7056
13.8651 1.00304 55.4223
13.9715 0.843932 55.6983
13.8932 1.02061 55.3837
13.9919 0.879427 55.6278
13.9058 1.07323 55.2828
14.0597 0.808363 55.747
13.9651 1.0206 55.3693
14.0958 0.808365 55.7397
14.0246 0.967809 55.456
14.1161 0.843938 55.6692
14.0448 1.00302 55.3861
14.1522 0.843941 55.6619
14.018 1.14308 55.1296
14.1724 0.879431 55.5915
14.0695 1.10818 55.1845
14.2085 0.879434 55.5842
14.1132 1.09069 55.2084
14.2286 0.914841 55.5139
14.1649 1.05568 55.2634
14.2646 0.914843 55.5067
14.1928 1.07319 55.2251
14.3007 0.914844 55.4994
14.2367 1.05567 55.249
14.3691 0.843961 55.6181
14.2806 1.03813 55.2729
14.389 0.879447 55.5478
14.2846 1.10815 55.1412
14.4251 0.879451 55.5405
14.3124 1.1256 55.103
14.4613 0.879455 55.5332
14.3723 1.07317 55.1889
14.4811 0.914857 55.463
14.4082 1.07317 55.1817
14.5171 0.914861 55.4557
14.428 1.10814 55.1123
14.5532 0.914865 55.4485
14.4558 1.12559 55.0741
14.5893 0.914869 55.4412
14.4997 1.10813 55.0979
14.6254 0.914873 55.4339
14.5275 1.12558 55.0597
14.645 0.950192 55.3639
14.5471 1.16043 54.9906
14.6811 0.950197 55.3566
14.5992 1.12558 55.0452
14.7337 0.914889 55.4121
14.6514 1.09066 55.1
14.7698 0.914894 55.4048
14.6873 1.09066 55.0928
14.7892 0.950211 55.3348
14.6985 1.14301 54.9926
14.8253 0.950216 55.3275
14.718 1.17781 54.9236
14.8613 0.950222 55.3203
14.762 1.16042 54.9473
14.8807 0.985456 55.2505
14.8061 1.14301 54.9709
14.9167 0.985462 55.2432
14.8502 1.12559 54.9946
14.9695 0.950241 55.2984
14.8778 1.14302 54.9565
15.0056 0.950248 55.2911
14.9136 1.14302 54.9493
15.0417 0.950255 55.2839
14.9411 1.16043 54.9112
15.0609 0.985486 55.2141
14.9603 1.19519 54.8423
15.0969 0.985494 55.2068
14.9961 1.19519 54.8351
15.1329 0.985502 55.1996
15.0487 1.16044 54.8895
15.152 1.02065 55.13
15.0677 1.19519 54.8206
15.205 0.985518 55.185
15.1035 1.1952 54.8134
15.2411 0.985526 55.1777
15.1562 1.16045 54.8678
15.2771 0.985535 55.1705
15.1752 1.1952 54.799
15.3132 0.985544 55.1632
15.211 1.19521 54.7918
15.3492 0.985554 55.1559
15.2214 1.24719 54.6925
15.3853 0.985564 55.1486
15.2826 1.19522 54.7773
15.4041 1.02071 55.0791
15.3014 1.2299 54.7087
15.4401 1.02072 55.0718
15.3457 1.21258 54.7321
15.4761 1.02073 55.0645
15.3901 1.19524 54.7556
15.4948 1.0558 54.9952
15.4088 1.22991 54.687
15.5135 1.09078 54.926
15.4275 1.26451 54.6186
15.5495 1.09079 54.9188
15.4718 1.24723 54.6419
15.6028 1.05583 54.9734
15.5162 1.22993 54.6653
15.6388 1.05584 54.9661
15.552 1.22994 54.6581
15.6748 1.05585 54.9588
15.5965 1.21263 54.6815
15.7108 1.05586 54.9516
15.6323 1.21263 54.6743
15.7469 1.05588 54.9443
15.6508 1.24727 54.6058
15.7829 1.05589 54.937
15.6865 1.24728 54.5986
15.8012 1.09087 54.8679
15.7136 1.26457 54.5608
15.8196 1.12578 54.7989
15.7233 1.31631 54.4621
15.8909 1.05593 54.9151
15.7765 1.28185 54.5158
15.8915 1.1258 54.7844
15.8122 1.28186 54.5086
15.9274 1.12582 54.7771
15.8568 1.26461 54.5318
15.9634 1.12583 54.7698
15.8926 1.26462 54.5246
15.9994 1.12584 54.7626
15.9284 1.26463 54.5174
16.0532 1.09097 54.8169
15.9819 1.23006 54.5712
16.0892 1.09098 54.8096
16.0178 1.23008 54.564
16.1073 1.12589 54.7407
16.0181 1.29917 54.4347
16.1432 1.1259 54.7335
16.0539 1.29919 54.4275
16.1612 1.16073 54.6647
16.0719 1.33363 54.3595
16.1972 1.16075 54.6575
16.1254 1.29921 54.413
16.2331 1.16076 54.6502
16.1702 1.28199 54.4362
16.2691 1.16078 54.6429
16.1881 1.31646 54.3681
16.3232 1.12599 54.6971
16.2508 1.26476 54.4522
16.3228 1.19554 54.5671
16.2596 1.31649 54.3537
16.3587 1.19556 54.5598
16.2774 1.3509 54.2858
16.4129 1.16085 54.6138
16.3131 1.35091 54.2785
16.4489 1.16087 54.6065
16.3579 1.33374 54.3016
16.4665 1.19561 54.538
16.3847 1.35094 54.2641
16.5025 1.19563 54.5307
16.4114 1.36812 54.2266
16.5384 1.19565 54.5234
16.4471 1.36814 54.2193
16.556 1.23032 54.4551
16.492 1.35099 54.2423
16.6103 1.19569 54.5089
16.5369 1.33383 54.2654
16.6463 1.19571 54.5016
16.5635 1.35103 54.2279
16.6822 1.19573 54.4943
16.5993 1.35105 54.2206
16.7182 1.19576 54.487
16.6259 1.36823 54.1831
16.7542 1.19578 54.4797
16.6525 1.3854 54.1457
16.7715 1.23045 54.4114
16.679 1.40254 54.1083
16.8074 1.23047 54.4041
16.7148 1.40256 54.101
16.8434 1.23049 54.3968
16.7505 1.40258 54.0938
16.8793 1.23052 54.3895
16.7863 1.4026 54.0865
16.9153 1.23054 54.3823
16.822 1.40263 54.0793
16.9325 1.26513 54.3141
16.8578 1.40265 54.072
16.9684 1.26516 54.3068
16.8472 1.48801 53.9146
17.0043 1.26518 54.2995
16.92 1.4198 54.0274
17.0402 1.26521 54.2923
16.9651 1.40272 54.0503
17.0573 1.29972 54.2243
16.9635 1.47105 53.9229
17.0932 1.29975 54.217
17.0086 1.45402 53.9456
17.1291 1.29977 54.2097
17.0537 1.43698 53.9684
17.184 1.26531 54.2631
17.0894 1.43701 53.9611
17.22 1.26534 54.2558
17.1252 1.43703 53.9539
17.2559 1.26537 54.2485
17.1798 1.40287 54.0067
17.2919 1.26539 54.2412
17.1967 1.43709 53.9394
17.3278 1.26542 54.2339
17.2325 1.43711 53.9321
17.3638 1.26545 54.2266
17.2682 1.43714 53.9248
17.3805 1.29997 54.1587
17.304 1.43717 53.9176
17.4165 1.3 54.1514
17.3589 1.40301 53.9704
17.4139 1.36878 54.0233
17.3375 1.50538 53.7833
17.4691 1.33447 54.0763
17.3923 1.47137 53.8358
17.505 1.3345 54.069
17.428 1.4714 53.8286
17.5409 1.33453 54.0617
17.4638 1.47143 53.8213
17.5769 1.33457 54.0544
17.4996 1.47146 53.8141
17.6128 1.3346 54.0471
17.545 1.45445 53.8367
17.6487 1.33463 54.0398
17.5808 1.45448 53.8294
17.6652 1.369 53.9723
17.5973 1.48859 53.7624
17.7011 1.36904 53.965
17.6137 1.52262 53.6954
17.737 1.36907 53.9577
17.6398 1.53963 53.6584
17.7338 1.43755 53.8303
17.6658 1.55661 53.6213
17.7892 1.4034 53.8829
17.7112 1.53969 53.6438
17.8448 1.36918 53.9357
17.7567 1.52276 53.6663
17.861 1.40347 53.8683
17.7827 1.53977 53.6293
17.8969 1.40351 53.861
17.799 1.57369 53.5626
17.9329 1.40355 53.8537
17.8347 1.57373 53.5553
17.9688 1.40358 53.8464
17.8802 1.55683 53.5777
18.0246 1.36936 53.8992
17.9356 1.52294 53.6299
18.0605 1.3694 53.8918
17.9714 1.52298 53.6227
18.0766 1.4037 53.8245
17.9973 1.53999 53.5856
18.1125 1.40374 53.8172
18.0134 1.57392 53.519
18.1285 1.43796 53.75
18.0392 1.59088 53.482
18.1644 1.438 53.7426
18.075 1.59092 53.4748
18.2003 1.43804 53.7353
18.1107 1.59096 53.4675
18.2363 1.43809 53.728
18.1465 1.591 53.4602
18.2722 1.43813 53.7207
18.1922 1.57413 53.4825
18.288 1.47228 53.6536
18.228 1.57417 53.4752
18.3038 1.50636 53.5867
18.2637 1.57421 53.468
18.3397 1.5064 53.5794
18.2795 1.60807 53.4015
18.3756 1.50645 53.5721
18.3153 1.60812 53.3942
18.4114 1.50649 53.5648
18.3611 1.59126 53.4165
18.4676 1.4725 53.617
18.407 1.57439 53.4388
18.5035 1.47255 53.6097
18.4327 1.59135 53.4019
18.5395 1.4726 53.6024
18.4584 1.6083 53.365
18.5754 1.47264 53.595
18.4942 1.60835 53.3577
18.6114 1.47269 53.5877
18.53 1.6084 53.3504
18.6474 1.47274 53.5804
18.5658 1.60844 53.3431
18.6833 1.47279 53.573
18.6016 1.60849 53.3358
18.6988 1.50687 53.5062
18.6273 1.62542 53.2989
18.7347 1.50692 53.4989
18.6529 1.64234 53.2622
18.7501 1.54094 53.4322
18.6887 1.64239 53.2549
18.8066 1.50702 53.4842
18.7245 1.64244 53.2475
18.8426 1.50708 53.4768
18.7501 1.65934 53.2108
18.8786 1.50713 53.4695
18.7859 1.65939 53.2035
18.9145 1.50718 53.4621
18.8114 1.67627 53.1668
18.9505 1.50723 53.4548
18.8575 1.6595 53.1889
18.9865 1.50729 53.4474
18.8933 1.65955 53.1815
19.0225 1.50734 53.4401
18.9394 1.64276 53.2036
19.0376 1.54136 53.3734
18.9649 1.65966 53.1669
19.0736 1.54142 53.3661
19.0008 1.65972 53.1596
19.1096 1.54147 53.3587
19.047 1.64293 53.1816
19.1456 1.54153 53.3514
19.0621 1.67666 53.1155
19.1606 1.57548 53.2849
19.0771 1.71032 53.0496
19.1965 1.57554 53.2775
19.1233 1.69359 53.0715
19.2325 1.5756 53.2701
19.1592 1.69365 53.0642
19.2685 1.57566 53.2628
19.195 1.69371 53.0569
19.3045 1.57572 53.2554
19.2099 1.72734 52.991
19.3193 1.6096 53.1891
19.2248 1.76089 52.9252
19.3553 1.60966 53.1817
19.2711 1.74422 52.9471
19.3913 1.60972 53.1743
19.3069 1.74428 52.9398
19.4272 1.60979 53.167
19.3427 1.74435 52.9324
19.4632 1.60985 53.1596
19.3785 1.74441 52.9251
19.4992 1.60991 53.1522
19.4144 1.74448 52.9177
19.5352 1.60998 53.1449
19.4608 1.72779 52.9396
19.5499 1.64379 53.0787
19.4861 1.74461 52.903
19.5858 1.64386 53.0713
19.5113 1.76142 52.8665
19.6218 1.64393 53.0639
19.5365 1.77821 52.8301
19.6793 1.61024 53.1153
19.5937 1.74481 52.881
19.7153 1.61031 53.1079
19.6295 1.74488 52.8736
19.7298 1.64413 53.0418
19.6547 1.76169 52.8371
19.7443 1.67788 52.9758
19.6799 1.77849 52.8006
19.7803 1.67795 52.9684
19.7158 1.77856 52.7933
19.8163 1.67802 52.961
19.7517 1