# .PCD v0.7 - Point Cloud Data file format
VERSION 0.7
FIELDS x y z
SIZE 4 4 4
TYPE F F F
COUNT 1 1 1
WIDTH 1527
HEIGHT 1
VIEWPOINT 0 0 0 1 0 0 0
POINTS 1527
DATA ascii
-27.654 19.9277 98.2964
-27.0473 19.9931 98.0456
-26.77 19.979 98.0175
-26.7008 19.9755 98.0105
-25.7781 20.12 97.5401
-25.663 20.2091 97.3414
-25.6177 20.1595 97.4301
-25.5829 20.2287 97.2866
-24.7083 20.3028 96.9648
-24.6861 20.3486 96.87
-24.2795 20.3283 96.8281
-24.2577 20.3741 96.7336
-24.0334 20.4096 96.6184
-23.9659 20.4063 96.6114
-23.8985 20.403 96.6044
-23.1427 20.5514 96.1598
-22.9421 20.5415 96.1389
-22.9217 20.5867 96.0458
-22.8753 20.5383 96.1319
-22.8549 20.5834 96.0388
-22.8085 20.535 96.125
-22.7882 20.5802 96.0318
-22.7417 20.5317 96.118
-22.675 20.5285 96.111
-22.6447 20.5962 95.9714
-22.568 20.6154 95.918
-22.548 20.6604 95.8253
-22.5015 20.6122 95.9111
-21.9308 20.6761 95.6702
-21.8646 20.6729 95.6633
-21.5237 20.8388 95.2677
-21.4768 20.791 95.3525
-21.4578 20.8356 95.2608
-21.4109 20.7878 95.3455
-21.3828 20.6953 95.5222
-21.3545 20.7623 95.3844
-21.2792 20.7814 95.3316
-21.251 20.8482 95.1943
-21.2134 20.7783 95.3246
-21.1946 20.8228 95.2331
-21.0346 20.7241 95.3953
-20.979 20.8577 95.1209
-20.895 20.8989 95.0228
-20.8295 20.8958 95.0158
-20.8189 20.7593 95.2827
-20.7548 20.9148 94.9634
-20.6985 20.8894 95.0019
-20.633 20.8863 94.995
-20.5857 20.8388 95.0791
-20.5586 20.9053 94.9426
-20.4842 20.9243 94.8902
-20.4572 20.9906 94.7541
-20.4368 20.8769 94.9741
-20.4099 20.9432 94.8378
-20.3714 20.8737 94.9671
-20.3446 20.9401 94.8309
-20.3061 20.8706 94.9601
-20.2705 20.9591 94.7786
-20.2408 20.8675 94.9531
-20.2053 20.9559 94.7717
-20.1578 20.9086 94.8554
-20.1313 20.9749 94.7195
-20.1102 20.8613 94.9392
-20.0661 20.9718 94.7125
-20.045 20.8582 94.9321
-20.001 20.9686 94.7056
-19.8796 20.9404 94.7369
-19.8535 21.0065 94.6013
-19.8145 20.9373 94.7299
-19.7885 21.0034 94.5944
-19.7495 20.9342 94.7229
-19.7236 21.0003 94.5874
-19.6673 20.9752 94.6255
-19.6329 21.0631 94.4453
-19.6023 20.9721 94.6186
-19.5681 21.06 94.4384
-19.4862 21.1008 94.3416
-19.4725 20.9659 94.6046
-19.4385 21.0539 94.4245
-19.4076 20.9629 94.5976
-19.3737 21.0508 94.4175
-19.309 21.0477 94.4105
-19.2922 21.0915 94.3207
-19.2611 21.0007 94.4935
-19.2275 21.0885 94.3138
-19.1796 21.0416 94.3966
-19.1462 21.1292 94.2172
-19.1149 21.0385 94.3896
-19.0816 21.1261 94.2103
-18.9046 21.0732 94.279
-18.8635 21.1824 94.0554
-18.8401 21.0702 94.272
-18.8073 21.1576 94.0931
-18.7756 21.0671 94.265
-18.7266 21.1981 93.9969
-18.7111 21.0641 94.258
-18.6461 21.2386 93.9009
-18.6466 21.0611 94.251
-18.5819 21.2356 93.894
-18.5822 21.058 94.244
-18.5257 21.2108 93.9316
-18.4856 21.1424 94.0583
-18.4535 21.2295 93.8802
-18.4213 21.1394 94.0513
-18.3252 21.2234 93.8663
-18.3093 21.2669 93.7775
-18.261 21.2204 93.8593
-18.2373 21.2855 93.7262
-18.1969 21.2174 93.8523
-18.1733 21.2825 93.7193
-18.1329 21.2144 93.8454
-18.1093 21.2795 93.7123
-18.0688 21.2114 93.8384
-18.0453 21.2765 93.7054
-18.0048 21.2084 93.8314
-17.9814 21.2735 93.6984
-17.9408 21.2054 93.8244
-17.9175 21.2705 93.6915
-17.8923 21.159 93.9063
-17.8613 21.2459 93.7288
-17.8128 21.1995 93.8105
-17.782 21.2862 93.6333
-17.7488 21.1965 93.8035
-17.7105 21.3049 93.5822
-17.6696 21.2369 93.7078
-17.639 21.3235 93.5311
-17.6057 21.234 93.7009
-17.5753 21.3205 93.5241
-17.5571 21.1876 93.7824
-17.5191 21.2959 93.5613
-17.4932 21.1847 93.7754
-17.4554 21.293 93.5543
-17.3992 21.2684 93.5915
-17.3355 21.2654 93.5844
-17.2718 21.2625 93.5774
-17.2494 21.3273 93.4452
-17.1933 21.3028 93.4823
-17.1784 21.3459 93.3942
-17.1445 21.2566 93.5634
-17.1223 21.3214 93.4312
-17.0809 21.2537 93.5564
-17.0587 21.3185 93.4242
-17.0173 21.2508 93.5494
-16.9952 21.3155 93.4172
-16.939 21.291 93.4542
-16.9244 21.3342 93.3663
-16.8609 21.3313 93.3593
-16.7341 21.3254 93.3452
-16.6707 21.3225 93.3382
-2.53306 20.6878 91.7455
-2.47304 20.6859 91.7372
-2.46971 20.7496 91.6111
-2.41958 20.5562 91.9821
-2.41304 20.684 91.7289
-2.36371 20.4687 92.1432
-2.35624 20.6182 91.8471
-2.30767 20.381 92.3048
-2.2993 20.5524 91.9654
-2.24734 20.3792 92.2963
-2.23715 20.5931 91.8726
-2.18703 20.3773 92.2879
-2.17709 20.5912 91.8642
-2.13257 20.2462 92.5353
-2.12091 20.504 92.0249
-2.07594 20.1579 92.698
-2.06454 20.4164 92.1861
-2.01913 20.0693 92.8612
-2.00984 20.2856 92.433
-1.9585 20.0674 92.8526
-1.95037 20.2622 92.4672
-1.90672 19.8475 93.2756
-1.89524 20.1307 92.7153
-1.85104 19.714 93.5275
-1.8407 19.9767 93.0077
-1.7934 19.6241 93.6932
-1.78417 19.8658 93.2151
-1.73556 19.5339 93.8594
-1.72416 19.8421 93.2497
-1.67595 19.4877 93.9383
-1.66883 19.6866 93.545
-1.62241 19.2633 94.3699
-1.61241 19.5524 93.7981
-1.55943 19.3062 94.2727
-1.55051 19.5727 93.7457
-1.50522 19.0803 94.707
-1.49369 19.438 93.9997
-1.44214 19.1235 94.6091
-1.4345 19.3695 94.1228
-1.38725 18.8962 95.0461
-1.37783 19.2115 94.4229
-1.32666 18.8491 95.1267
-1.31826 19.1425 94.5469
-1.26849 18.711 95.3874
-1.2573 19.1183 94.5823
-1.20641 18.7092 95.3783
-1.19807 19.0265 94.7512
-1.14778 18.5704 95.6401
-1.14036 18.8666 95.0548
-1.08557 18.5687 95.631
-1.07904 18.8422 95.0906
-1.02336 18.567 95.6218
-1.0187 18.7724 95.2161
-0.964125 18.4275 95.8848
-0.95871 18.6796 95.3869
-0.905519 18.241 96.2406
-0.89898 18.5636 95.6035
-0.845617 18.0999 96.5066
-0.839876 18.4011 95.9119
-0.783737 18.0516 96.5893
-0.779588 18.284 96.1306
-0.722534 17.9565 96.7645
-0.717878 18.236 96.2128
-0.660397 17.908 96.8477
-0.656069 18.1879 96.295
-0.598161 17.8594 96.9309
-0.59516 18.07 96.5153
-0.538897 17.5745 97.4805
-0.534294 17.9281 96.7826
-0.475622 17.5728 97.471
-0.472829 17.8091 97.0048
-0.412858 17.5237 97.5552
-0.410349 17.7604 97.0882
-0.351784 17.2834 98.0165
-0.348433 17.6407 97.3117
-0.288198 17.2818 98.0069
-0.286052 17.5443 97.4892
-0.224957 17.2323 98.0919
-0.222792 17.5427 97.4796
-0.163269 16.8925 98.7492
-0.16106 17.2786 97.9875
-0.0992541 16.8909 98.7393
-0.0973956 17.301 97.9306
-0.0350895 16.9379 98.6338
-0.0344486 17.1313 98.2525
0.0285419 16.7904 98.9117
0.0291006 17.0574 98.3854
0.0926396 16.7889 98.9018
0.0928597 17.0317 98.4233
0.156815 16.5424 99.3747
0.156689 16.909 98.6522
0.221188 16.5409 99.3647
0.22073 16.8345 98.7861
0.28596 16.3914 99.6464
0.285138 16.6866 99.0648
0.350686 16.3404 99.7339
0.349698 16.587 99.248
0.416039 16.1899 100.017
0.414742 16.4378 99.529
0.482406 15.9382 100.5
0.479979 16.3126 99.7626
0.547439 15.9368 100.49
0.544939 16.2615 99.8503
0.612905 15.885 100.579
0.61001 16.2103 99.9381
0.678487 15.8332 100.668
0.675947 16.0842 100.173
0.744754 15.7307 100.856
0.741896 15.9826 100.36
0.812547 15.5261 101.246
0.809346 15.7798 100.746
0.879421 15.4226 101.436
0.875548 15.7025 100.885
0.945767 15.37 101.527
0.941164 15.6757 100.925
1.01307 15.2659 101.718
1.00807 15.5728 101.115
1.08426 14.9542 102.318
1.07745 15.3415 101.556
1.15035 14.9529 102.308
1.14309 15.3401 101.546
1.21644 14.9515 102.297
1.21281 15.1329 101.94
1.28695 14.7414 102.697
1.28196 14.9761 102.235
1.35209 14.7924 102.583
1.34799 14.9747 102.225
1.42331 14.5812 102.985
1.41709 14.8432 102.47
1.49111 14.5271 103.078
1.48391 14.8158 102.511
1.55902 14.473 103.171
1.55351 14.6836 102.757
1.6329 14.2062 103.682
1.62344 14.5508 103.005
1.70132 14.1516 103.776
1.69826 14.2582 103.567
1.76349 14.3101 103.451
1.84357 13.8806 104.282
1.83354 14.2023 103.649
1.91082 13.8793 104.271
1.90213 14.1477 103.743
1.99086 13.498 105.006
1.97444 13.9857 104.048
2.05474 13.6059 104.781
2.04529 13.8767 104.249
2.12622 13.4955 104.984
2.11639 13.7674 104.45
2.20415 13.2198 105.511
2.19082 13.5761 104.812
2.27214 13.2186 105.5
2.26048 13.5204 104.908
2.34895 12.9959 105.924
2.33791 13.2725 105.381
2.41718 12.9947 105.912
2.40806 13.2162 105.478
2.48304 13.049 105.792
2.48069 13.1044 105.683
2.56824 12.6569 106.548
2.55967 12.853 106.163
2.63683 12.6558 106.536
2.62928 12.8239 106.206
2.71846 12.3722 107.079
2.70932 12.5702 106.69
2.79008 12.3142 107.178
2.77665 12.5972 106.623
2.86182 12.2562 107.278
2.85077 12.4832 106.833
2.93655 12.1409 107.491
2.92517 12.3688 107.044
3.00864 12.0825 107.591
2.99696 12.3108 107.143
3.08086 12.024 107.692
3.06887 12.2528 107.243
3.15321 11.9655 107.793
3.14551 12.1089 107.512
3.23522 11.7333 108.234
3.22254 11.9644 107.781
3.31135 11.6161 108.45
3.29186 11.9633 107.769
3.39451 11.3813 108.896
3.3861 11.5276 108.609
3.46451 11.3802 108.884
3.45421 11.5557 108.54
3.54508 11.2027 109.217
3.53098 11.4378 108.757
3.62251 11.0834 109.437
3.60806 11.3194 108.975
3.69654 11.0231 109.541
3.6836 11.2301 109.135
3.7745 10.9031 109.762
3.76314 11.0813 109.413
3.84501 10.9021 109.749
3.82959 11.1395 109.285
3.94336 10.481 110.56
3.93136 10.6617 110.206
4.01844 10.4195 110.666
4.00214 10.6608 110.193
4.08118 10.5394 110.417
4.07084 10.6898 110.122
4.16479 10.357 110.759
4.15208 10.5384 110.404
4.24892 10.1734 111.104
4.2359 10.356 110.747
4.32023 10.1725 111.092
4.3136 10.2639 110.913
4.39154 10.1716 111.079
4.38479 10.263 110.9
4.49981 9.67829 112.03
4.47201 10.0483 111.306
4.58596 9.49068 112.382
4.57168 9.67741 112.017
4.66778 9.36468 112.614
4.65563 9.52101 112.308
4.74497 9.30107 112.724
4.7326 9.45771 112.418
4.81726 9.30021 112.711
4.8047 9.45684 112.405
4.92046 8.92012 113.439
4.88189 9.39343 112.514
5.00376 8.79182 113.675
4.98007 9.07788 113.116
5.07663 8.79102 113.662
5.05525 9.04541 113.165
5.14949 8.79021 113.649
5.13862 8.91766 113.4
5.22787 8.72548 113.761
5.21682 8.85319 113.512
5.29518 8.7886 113.623
5.4081 8.33755 114.489
5.39371 8.49912 114.174
5.48733 8.27192 114.603
5.48146 8.33678 114.476
5.57867 8.07574 114.971
5.56076 8.27116 114.59
5.65232 8.075 114.958
5.63718 8.23793 114.64
5.76939 7.61343 115.844
5.72596 8.07427 114.944
5.84357 7.61273 115.83
5.91775 7.61204 115.817
5.90814 7.71136 115.623
6.00494 7.47842 116.063
6.09916 7.27729 116.44
6.07925 7.47774 116.049
6.18722 7.14227 116.689
6.18045 7.20952 116.557
6.26191 7.14162 116.675
6.25507 7.20887 116.544
6.35749 6.93837 117.056
6.47515 6.52854 117.84
6.42534 7.00542 116.91
6.53607 6.66494 117.559
6.72369 6.32017 118.201
6.71248 6.42364 117.999
6.79174 6.38861 118.052
6.7842 6.45746 117.918
7.013 5.76089 119.245
7.00512 5.83113 119.108
7.18977 5.54821 119.629
7.1655 5.75985 119.216
7.29926 5.26331 120.168
7.29098 5.33465 120.029
7.38447 5.19134 120.293
7.3719 5.29852 120.084
7.47839 5.0474 120.558
7.46137 5.19087 120.278
7.57272 4.90283 120.824
7.54684 5.11875 120.403
7.64995 4.90239 120.809
7.78057 4.46572 121.643
7.75822 4.64821 121.288
7.86738 4.39203 121.771
7.84023 4.61138 121.344
7.96357 4.24457 122.042
7.93145 4.50149 121.542
8.06958 4.02233 122.459
8.03225 4.3178 121.884
8.18589 3.72378 123.024
8.13835 4.09609 122.3
8.2356 3.94733 122.573
8.22603 4.02161 122.429
8.3724 3.49768 123.432
8.34303 3.72311 122.994
8.41176 3.79757 122.833
8.59058 3.04147 124.287
8.6291 3.34561 123.68
8.78046 2.81076 124.704
8.72863 3.19348 123.96
8.86007 2.81051 124.688
8.84956 2.88741 124.539
8.98238 2.50085 125.274
8.94499 2.77175 124.748
9.20835 2.03081 126.155
9.15323 2.42262 125.394
9.28886 2.03064 126.139
9.42616 1.63399 126.893
9.39767 1.83283 126.507
9.50714 1.63386 126.877
9.64664 1.23249 127.64
9.61726 1.43372 127.25
9.73997 1.15157 127.781
9.7162 1.31303 127.468
9.84558 0.989252 128.08
9.80948 1.2323 127.608
9.93947 0.907772 128.221
9.89693 1.19183 127.67
10.0583 0.662305 128.681
9.98448 1.15131 127.732
10.1404 0.662265 128.665
10.0783 1.07023 127.873
10.2225 0.662224 128.648
10.1661 1.02958 127.936
10.3045 0.662185 128.632
10.2414 1.07007 127.841
10.3994 0.579972 128.775
10.3103 1.15096 127.668
10.4557 0.744069 128.44
10.3917 1.15088 127.651
10.4988 0.988685 127.949
10.4796 1.11034 127.714
10.8333 -0.5919 130.997
10.6655 0.45627 128.965
10.9582 -0.848283 131.478
10.9444 -0.762579 131.311
11.0142 -0.677002 131.129
10.9589 -0.337232 130.47
11.0977 -0.676914 131.112
11.0282 -0.252775 130.29
11.1813 -0.676827 131.095
11.1392 -0.421727 130.6
11.2649 -0.676736 131.078
11.2154 -0.379336 130.502
11.3484 -0.676649 131.061
11.2633 -0.168462 130.076
11.432 -0.676558 131.044
11.3391 -0.126419 129.978
11.5155 -0.676471 131.027
11.4006 -0.000704635 129.718
11.599 -0.676381 131.01
11.5264 -0.252482 130.189
11.6825 -0.676293 130.993
11.5804 -0.0843725 129.847
11.766 -0.676203 130.976
11.685 -0.210295 130.074
11.8346 -0.590933 130.794
11.7459 -0.0843049 129.813
11.9179 -0.590851 130.777
11.8287 -0.0842711 129.797
12.0164 -0.675935 130.925
11.904 -0.0423671 129.699
12.0998 -0.675847 130.908
11.9866 -0.0423362 129.682
12.1833 -0.675757 130.891
12.0995 -0.210065 129.99
12.2667 -0.675667 130.874
12.2052 -0.336378 130.218
12.3501 -0.67558 130.857
12.2575 -0.167964 129.875
12.4178 -0.590364 130.676
12.3019 0.0413301 129.454
12.5011 -0.590283 130.659
12.3767 0.083042 129.357
12.5844 -0.590201 130.642
12.4591 0.0830617 129.34
12.6676 -0.59012 130.625
12.5338 0.124713 129.243
12.7349 -0.505156 130.444
12.6161 0.12473 129.226
12.818 -0.505082 130.427
12.7301 -0.0420585 129.532
12.9011 -0.50501 130.41
12.8047 -0.000251137 129.435
12.9679 -0.42029 130.23
12.8632 0.124781 129.177
13.0509 -0.420223 130.213
12.9455 0.124798 129.16
13.1339 -0.420156 130.196
13.0036 0.249334 128.903
13.2168 -0.420091 130.179
13.151 -0.083709 129.53
13.2998 -0.420024 130.163
13.2088 0.0415963 129.271
13.3827 -0.419957 130.146
13.2747 0.12487 129.094
13.4657 -0.41989 130.129
13.357 0.124887 129.077
13.5486 -0.419823 130.112
13.4476 0.0833163 129.141
13.6315 -0.419756 130.095
13.5299 0.0833385 129.124
13.6972 -0.335325 129.916
13.6122 0.0833607 129.108
13.78 -0.335264 129.899
13.6944 0.0833854 129.091
13.8628 -0.335205 129.882
13.7596 0.166507 128.914
13.9456 -0.335144 129.865
13.8418 0.166523 128.897
14.0283 -0.335085 129.849
13.9412 0.0834545 129.041
14.111 -0.335024 129.832
14.0234 0.0834767 129.025
14.1938 -0.334963 129.815
14.0882 0.166573 128.848
14.2587 -0.2508 129.636
14.1353 0.332101 128.512
14.3413 -0.250747 129.619
14.2436 0.208057 128.735
14.4239 -0.250694 129.603
14.2902 0.373353 128.4
14.5065 -0.250642 129.586
14.3809 0.332112 128.463
14.589 -0.250589 129.569
14.4628 0.332114 128.446
14.6716 -0.250534 129.553
14.5627 0.249501 128.589
14.7542 -0.250481 129.536
14.6265 0.332123 128.413
14.8367 -0.250426 129.519
14.7266 0.249523 128.556
14.9192 -0.250374 129.502
14.8085 0.249533 128.539
14.9831 -0.166491 129.324
14.872 0.332136 128.364
15.0655 -0.166444 129.308
14.9538 0.332141 128.347
15.1479 -0.166397 129.291
15.0356 0.332146 128.331
15.2303 -0.16635 129.274
15.1174 0.332154 128.314
15.3127 -0.166301 129.258
15.1992 0.332159 128.298
15.3759 -0.0826689 129.08
15.2527 0.45562 128.044
15.4198 0.0839082 128.743
15.3344 0.455617 128.027
15.5404 -0.0825869 129.047
15.416 0.455611 128.011
15.6227 -0.0825459 129.03
15.5454 0.249648 128.391
15.7049 -0.0825048 129.014
15.5887 0.41452 128.057
15.7871 -0.0824639 128.997
15.6511 0.496638 127.883
15.8693 -0.0824229 128.98
15.7229 0.53761 127.788
15.8141 0.496626 127.85
15.7656 0.701006 127.457
16.0138 0.000985522 128.787
15.8858 0.537595 127.755
16.0959 0.00102076 128.77
15.9575 0.578506 127.66
16.178 0.00105599 128.754
16.0389 0.578494 127.644
16.2601 0.00109121 128.737
16.1301 0.537571 127.706
16.3421 0.00112642 128.721
16.2215 0.496604 127.768
16.4038 0.0842452 128.544
16.2829 0.578462 127.595
16.4858 0.0842747 128.528
16.3442 0.660111 127.421
16.5677 0.0843042 128.511
16.4255 0.660094 127.405
16.6496 0.0843337 128.495
16.5067 0.660077 127.389
16.7315 0.0843632 128.478
16.6083 0.578426 127.529
16.8134 0.0843952 128.462
16.6691 0.660048 127.356
16.8953 0.0844246 128.445
16.7812 0.537521 127.575
16.9772 0.0844541 128.429
16.8212 0.700752 127.245
17.0591 0.084486 128.412
16.892 0.741418 127.151
17.141 0.0845179 128.396
17.0252 0.537507 127.526
17.2228 0.0845474 128.379
17.096 0.578377 127.431
17.3047 0.0845793 128.362
17.1353 0.741358 127.102
17.3436 0.250006 128.029
17.1953 0.822528 126.93
17.4468 0.167437 128.171
17.2974 0.74132 127.07
17.5285 0.167461 128.154
17.3997 0.659927 127.209
17.6103 0.167487 128.138
17.5237 0.496579 127.506
17.692 0.167513 128.121
17.6159 0.455623 127.569
17.7737 0.167539 128.105
17.6215 0.74125 127.005
17.8554 0.167566 128.088
17.7133 0.700581 127.066
17.915 0.250142 127.913
17.8053 0.65987 127.128
17.9965 0.250163 127.897
17.8754 0.700556 127.034
18.0781 0.250186 127.88
17.9674 0.659851 127.095
18.1597 0.250206 127.864
18.0485 0.659841 127.079
18.2412 0.250227 127.848
18.1296 0.659831 127.063
18.3228 0.250247 127.831
18.2106 0.659824 127.046
18.4043 0.25027 127.815
18.2805 0.700494 126.952
18.4859 0.250291 127.798
18.3391 0.781687 126.78
18.5446 0.332613 127.624
18.4425 0.700471 126.92
18.626 0.33263 127.608
18.5122 0.741082 126.826
18.7074 0.332645 127.591
18.5818 0.781635 126.732
18.7657 0.414742 127.418
18.674 0.741056 126.793
18.847 0.414754 127.401
18.7435 0.781604 126.699
18.9283 0.414765 127.385
18.7671 0.983648 126.296
19.0096 0.414777 127.369
18.8592 0.943308 126.357
19.0909 0.414789 127.352
18.9514 0.902927 126.418
19.1722 0.4148 127.336
19.0902 0.700394 126.79
19.2535 0.414812 127.32
19.1477 0.781533 126.618
19.3347 0.414826 127.303
19.2286 0.78152 126.602
19.4399 0.332805 127.444
19.3094 0.781506 126.586
19.4733 0.496677 127.114
19.3313 0.983453 126.183
19.5545 0.496683 127.098
19.3883 1.06386 126.013
19.6356 0.496691 127.081
19.5042 0.943113 126.228
19.7168 0.4967 127.065
19.561 1.02361 126.058
19.7495 0.659714 126.737
19.6535 0.98335 126.119
19.8547 0.578313 126.876
19.758 0.902715 126.257
19.9601 0.496727 127.016
19.8386 0.902696 126.24
20.0167 0.578321 126.844
19.9193 0.902679 126.224
20.0977 0.578324 126.828
19.9514 1.06365 125.9
20.1787 0.578329 126.811
20.0683 0.94296 126.115
20.2597 0.578334 126.795
20.1244 1.02342 125.945
20.3407 0.57834 126.779
20.2048 1.0234 125.929
20.4217 0.578345 126.762
20.273 1.06354 125.836
20.5026 0.57835 126.746
20.3781 0.983139 125.973
20.5836 0.578355 126.73
20.409 1.14365 125.651
20.6393 0.659704 126.558
20.5142 1.06346 125.788
20.7202 0.659703 126.542
20.5821 1.10354 125.695
20.8265 0.578376 126.681
20.6749 1.06341 125.755
20.8819 0.659707 126.509
20.7553 1.06338 125.739
20.9628 0.65971 126.493
20.8483 1.02321 125.8
21.0179 0.740828 126.322
20.9287 1.02319 125.784
21.073 0.82174 126.152
20.9203 1.30313 125.234
21.1536 0.821731 126.135
21.0004 1.30309 125.218
21.2601 0.740823 126.273
21.1314 1.14338 125.506
21.3409 0.740819 126.257
21.1989 1.18334 125.414
21.4216 0.740818 126.241
21.2919 1.14333 125.474
21.4761 0.821705 126.071
21.3077 1.34273 125.078
21.5567 0.821701 126.054
21.4006 1.3029 125.137
21.6373 0.821694 126.038
21.4806 1.30287 125.121
21.7444 0.740816 126.176
21.5607 1.30283 125.105
21.7721 0.902356 125.852
21.6407 1.3028 125.089
21.8791 0.821681 125.99
21.6945 1.38227 124.922
21.9865 0.740819 126.127
21.8534 1.14315 125.361
22.0403 0.821672 125.957
21.8807 1.30269 125.041
22.094 0.90232 125.787
21.9607 1.30266 125.025
22.1745 0.902312 125.771
21.9877 1.46141 124.707
22.255 0.902305 125.755
22.0941 1.38208 124.842
22.3354 0.902297 125.739
22.2141 1.26275 125.053
22.4159 0.90229 125.723
22.2673 1.34229 124.885
22.4963 0.902285 125.707
22.3607 1.3025 124.945
22.5768 0.902277 125.69
22.4407 1.30247 124.929
22.6573 0.902272 125.674
22.5206 1.30244 124.913
22.7377 0.902267 125.658
22.6006 1.30241 124.897
22.8182 0.902261 125.642
22.6669 1.34213 124.805
22.8708 0.982664 125.473
22.7058 1.46105 124.563
22.9512 0.982656 125.457
22.7856 1.46101 124.547
23.0315 0.982647 125.441
22.8654 1.46098 124.531
23.0839 1.06283 125.272
22.9727 1.3817 124.666
23.1641 1.06282 125.256
23.0665 1.34198 124.725
23.2443 1.06281 125.24
23.1603 1.30222 124.785
23.3246 1.0628 125.224
23.2403 1.30219 124.769
23.4048 1.06279 125.208
23.2502 1.50034 124.376
23.5135 0.982604 125.344
23.386 1.34187 124.661
23.5938 0.982598 125.328
23.4236 1.46073 124.419
23.6741 0.982592 125.311
23.5458 1.34182 124.629
23.7544 0.982586 125.295
23.6115 1.38146 124.538
23.8347 0.982582 125.279
23.5779 1.69709 123.923
23.8861 1.06273 125.111
23.7141 1.53961 124.206
23.9663 1.06272 125.095
23.7653 1.61838 124.04
24.0174 1.14266 124.927
23.8305 1.65767 123.949
24.0976 1.14265 124.911
23.9243 1.6183 124.008
24.1777 1.14264 124.895
24.0615 1.46048 124.292
24.2577 1.14263 124.879
24.0978 1.57886 124.051
24.3085 1.22236 124.711
24.134 1.69679 123.811
24.3885 1.22234 124.695
24.2424 1.61816 123.944
24.4685 1.22233 124.679
24.322 1.61812 123.929
24.5485 1.22231 124.663
24.3432 1.77507 123.615
24.6285 1.2223 124.647
24.4664 1.65737 123.822
24.7085 1.22229 124.631
24.5458 1.65733 123.806
24.7884 1.22228 124.615
24.6106 1.69656 123.716
24.8684 1.22227 124.599
24.6605 1.77491 123.551
24.9484 1.22225 124.583
24.7694 1.69649 123.684
25.0284 1.22224 124.567
24.8488 1.69645 123.668
25.1084 1.22223 124.551
24.9283 1.69641 123.652
25.1883 1.22222 124.535
24.9778 1.77475 123.488
25.2379 1.30171 124.368
25.0571 1.77471 123.472
25.3178 1.3017 124.352
25.1815 1.65706 123.679
25.3977 1.30168 124.336
25.2308 1.73548 123.514
25.4775 1.30167 124.32
25.3102 1.73545 123.499
25.5574 1.30166 124.304
25.3442 1.85272 123.261
25.6373 1.30165 124.288
25.4993 1.65694 123.615
25.7172 1.30164 124.272
25.5788 1.65691 123.599
25.766 1.3809 124.106
25.6123 1.77446 123.361
25.8458 1.38089 124.09
25.6916 1.77443 123.345
25.8945 1.45996 123.924
25.7249 1.89154 123.107
25.9742 1.45994 123.908
25.7734 1.96936 122.944
26.0851 1.38085 124.042
25.8986 1.85246 123.15
26.1649 1.38084 124.025
25.947 1.93037 122.986
26.2132 1.45989 123.86
26.0106 1.96924 122.897
26.2929 1.45988 123.844
26.1052 1.9303 122.955
26.341 1.53873 123.679
26.1843 1.93026 122.939
26.4205 1.53872 123.663
26.2634 1.93023 122.923
26.4053 1.77415 123.202
26.2956 2.04673 122.687
26.5797 1.53868 123.631
26.3903 2.00789 122.744
26.6912 1.45981 123.764
26.485 1.96901 122.802
26.7709 1.4598 123.748
26.5799 1.93009 122.859
26.8506 1.45979 123.732
26.6907 1.85214 122.991
26.898 1.53862 123.567
26.7699 1.85212 122.975
26.9776 1.53861 123.551
26.8491 1.85209 122.959
27.0896 1.45976 123.684
26.9123 1.89103 122.87
27.1692 1.45975 123.668
26.9434 2.00764 122.634
27.2489 1.45975 123.652
27.0385 1.96878 122.691
27.2959 1.53856 123.487
27.1175 1.96875 122.675
27.3427 1.61718 123.323
27.1643 2.04633 122.513
27.4222 1.61717 123.307
27.1789 2.20096 122.205
27.5346 1.53853 123.439
27.3385 2.00749 122.554
27.5812 1.61714 123.275
27.385 2.08496 122.392
27.6277 1.69556 123.111
27.4639 2.08493 122.376
27.7071 1.69555 123.095
27.5429 2.0849 122.361
27.7864 1.69553 123.079
27.6218 2.08487 122.345
27.8658 1.69552 123.063
27.6679 2.16215 122.183
27.9452 1.6955 123.047
27.7632 2.12349 122.24
28.0246 1.69549 123.031
27.8256 2.16209 122.152
28.104 1.69548 123.015
27.9375 2.08475 122.282
28.1834 1.69547 122.999
27.9999 2.1234 122.193
28.2291 1.77368 122.836
28.0787 2.12337 122.177
28.3422 1.69545 122.967
28.1243 2.20054 122.016
28.4216 1.69544 122.952
28.2365 2.12331 122.145
28.501 1.69543 122.936
28.3322 2.08462 122.202
28.5464 1.77363 122.772
28.3775 2.16188 122.041
28.6257 1.77362 122.756
28.4732 2.12324 122.098
28.705 1.7736 122.74
28.4847 2.2774 121.792
28.7843 1.7736 122.725
28.5803 2.23889 121.849
28.8293 1.85159 122.562
28.659 2.23887 121.833
28.9429 1.77358 122.693
28.7208 2.27732 121.744
29.0222 1.77357 122.677
28.7995 2.27729 121.729
29.1015 1.77356 122.661
28.9124 2.20027 121.858
29.1809 1.77356 122.645
28.9741 2.23876 121.77
29.2254 1.85154 122.482
29.0186 2.31563 121.609
29.3046 1.85153 122.466
29.1144 2.27719 121.666
29.3839 1.85152 122.45
29.2104 2.2387 121.722
29.4631 1.85152 122.434
29.2891 2.23867 121.706
29.5423 1.85151 122.418
29.3506 2.27712 121.618
29.6216 1.8515 122.403
29.4641 2.20013 121.747
29.6656 1.92929 122.24
29.5081 2.27708 121.587
29.7447 1.92928 122.225
29.5694 2.31547 121.499
29.7885 2.00687 122.063
29.6306 2.35382 121.411
29.8676 2.00687 122.047
29.6743 2.43039 121.251
29.9822 1.92926 122.177
29.7354 2.4686 121.163
30.0613 1.92926 122.161
29.8666 2.35375 121.363
30.1048 2.00684 121.999
29.8924 2.46855 121.132
30.1839 2.00683 121.983
30.0062 2.39203 121.26
30.2629 2.00683 121.967
30.0671 2.43028 121.172
30.342 2.00683 121.952
30.128 2.46849 121.085
30.3851 2.08422 121.79
30.2065 2.46847 121.069
30.5002 2.00682 121.92
30.3207 2.39196 121.197
30.507 2.16141 121.614
30.3458 2.50661 120.966
30.5859 2.1614 121.598
30.4064 2.54472 120.878
30.6648 2.1614 121.582
30.4849 2.5447 120.863
30.7801 2.08419 121.711
30.5813 2.50655 120.918
30.8591 2.08419 121.695
30.6778 2.46837 120.974
30.9016 2.16138 121.534
30.7203 2.54464 120.815
30.9805 2.16138 121.518
30.7627 2.62074 120.657
31.0594 2.16138 121.503
30.841 2.62072 120.641
31.1384 2.16137 121.487
30.9194 2.62071 120.625
31.2173 2.16137 121.471
31.016 2.58266 120.681
31.2962 2.16137 121.455
31.1126 2.54457 120.737
31.4123 2.08419 121.584
31.2278 2.46828 120.864
31.4541 2.16137 121.423
31.233 2.62065 120.563
31.5331 2.16137 121.407
31.3481 2.54454 120.689
31.612 2.16137 121.391
31.4266 2.54453 120.674
31.6536 2.23837 121.231
31.5051 2.54452 120.658
31.7325 2.23837 121.215
31.4913 2.73441 120.286
31.8114 2.23837 121.2
31.6251 2.6206 120.484
31.8903 2.23837 121.184
31.7035 2.62059 120.468
32.0069 2.1614 121.312
31.8378 2.50639 120.666
32.0103 2.31518 121.008
31.8604 2.62057 120.436
32.0891 2.31518 120.992
31.9201 2.65854 120.35
32.1679 2.31518 120.977
31.9425 2.77219 120.121
32.2467 2.31519 120.961
32.0207 2.77218 120.105
32.3256 2.31519 120.945
32.099 2.77217 120.09
32.4044 2.3152 120.929
32.2149 2.69645 120.216
32.4832 2.31521 120.913
32.3311 2.62055 120.342
32.562 2.31521 120.897
32.4856 2.46824 120.611
32.6409 2.31522 120.881
32.45 2.69644 120.168
32.6813 2.39183 120.722
32.5094 2.73432 120.082
32.7986 2.31524 120.85
32.5687 2.77215 119.995
32.8774 2.31525 120.834
32.6661 2.73432 120.05
32.9176 2.39186 120.675
32.6872 2.84768 119.823
32.9963 2.39187 120.659
32.7654 2.84768 119.807
33.0363 2.46829 120.5
32.8437 2.84767 119.791
33.1539 2.39189 120.627
32.9603 2.77215 119.916
33.2327 2.39191 120.611
32.9618 2.92302 119.619
33.3115 2.39192 120.595
33.0784 2.84768 119.744
33.3903 2.39193 120.579
33.1567 2.84768 119.728
33.3907 2.54457 120.278
33.235 2.84769 119.712
33.5479 2.39197 120.548
33.3326 2.80996 119.767
33.6267 2.39198 120.532
33.4695 2.6965 119.963
33.666 2.46839 120.373
33.5284 2.73438 119.877
33.7052 2.54463 120.215
33.6068 2.73439 119.861
33.8235 2.46843 120.341
33.646 2.81 119.704
33.9023 2.46845 120.326
33.7047 2.84774 119.618
33.9412 2.54468 120.168
33.7633 2.88543 119.532
33.9801 2.62073 120.01
33.7826 2.99824 119.305
34.0587 2.62074 119.994
33.8411 3.03576 119.22
34.1773 2.54474 120.12
33.9389 2.99826 119.274
34.256 2.54476 120.104
34.0368 2.96072 119.328
34.3347 2.54478 120.088
34.1349 2.92314 119.383
34.4134 2.5448 120.072
34.1734 2.9983 119.227
34.4921 2.54483 120.056
34.2914 2.92317 119.351
34.5708 2.54485 120.041
34.2899 3.0733 119.056
34.6496 2.54488 120.025
34.4479 2.92321 119.32
34.7283 2.5449 120.009
34.5262 2.92323 119.304
34.8071 2.54493 119.993
34.5844 2.96084 119.218
34.8858 2.54496 119.977
34.6627 2.96086 119.202
34.9237 2.621 119.819
34.7006 3.03593 119.047
35.0024 2.62103 119.804
34.799 2.99845 119.101
35.0811 2.62106 119.788
34.8772 2.99847 119.085
35.1598 2.62109 119.772
34.9555 2.9985 119.069
35.1973 2.69695 119.615
34.9931 3.07348 118.914
35.2759 2.69698 119.599
35.0509 3.11092 118.828
35.3546 2.69701 119.583
35.1494 3.07353 118.882
35.4332 2.69705 119.567
35.2072 3.11097 118.797
35.4704 2.77273 119.41
35.2445 3.18569 118.642
35.5076 2.84824 119.254
35.343 3.14839 118.696
35.6692 2.69715 119.519
35.4417 3.11105 118.749
35.6646 2.84831 119.222
35.4993 3.14845 118.664
35.7847 2.77287 119.347
35.6187 3.07371 118.787
35.8216 2.84838 119.191
35.6555 3.14851 118.633
35.9001 2.84841 119.175
35.7337 3.14855 118.617
35.9368 2.92374 119.019
35.7704 3.22318 118.462
36.0152 2.92378 119.003
35.8485 3.22321 118.447
36.1357 2.84853 119.127
35.9474 3.18597 118.5
36.2142 2.84857 119.111
36.0047 3.22328 118.415
36.2928 2.84861 119.095
36.1037 3.18604 118.468
36.3714 2.84866 119.08
36.14 3.26059 118.314
36.4499 2.8487 119.064
36.26 3.18612 118.437
36.5711 2.77329 119.188
36.3593 3.14885 118.49
36.6071 2.84879 119.032
36.3954 3.22348 118.336
36.6857 2.84884 119.016
36.4946 3.18625 118.389
36.7216 2.92417 118.86
36.5306 3.2608 118.235
36.7574 2.99933 118.705
36.5875 3.29803 118.15
36.8359 2.99937 118.689
36.6656 3.29808 118.135
36.9143 2.99942 118.673
36.7437 3.29812 118.119
36.9928 2.99948 118.657
36.8219 3.29817 118.103
37.0283 3.07446 118.502
36.8574 3.37246 117.949
37.1067 3.07451 118.487
36.9355 3.37251 117.934
37.1851 3.07456 118.471
36.9922 3.40962 117.849
37.3068 2.99968 118.594
37.113 3.33552 117.971
37.3853 2.99974 118.578
37.1697 3.37267 117.886
37.4204 3.07473 118.423
37.2263 3.40978 117.802
37.4989 3.07478 118.407
37.3474 3.33568 117.923
37.5774 3.07484 118.391
37.4471 3.29859 117.976
37.5687 3.22424 118.099
37.4174 3.48393 117.617
37.647 3.2243 118.083
37.517 3.44702 117.67
37.7254 3.22436 118.067
37.5734 3.48405 117.586
37.8913 3.07508 118.328
37.6731 3.44714 117.638
37.9259 3.1499 118.173
37.7511 3.4472 117.622
38.0043 3.14997 118.157
37.8075 3.48423 117.538
38.0387 3.22461 118.003
37.9073 3.44732 117.591
38.1171 3.22468 117.987
37.9854 3.44739 117.575
38.2397 3.15016 118.11
38.0855 3.41044 117.628
38.3182 3.15023 118.094
38.1197 3.48449 117.475
38.3523 3.22488 117.94
38.1759 3.52148 117.391
38.4307 3.22495 117.924
38.2319 3.55844 117.306
38.5092 3.22502 117.908
38.332 3.52163 117.359
38.6323 3.15051 118.03
38.4322 3.48477 117.411
38.7108 3.15059 118.014
38.5103 3.48484 117.395
38.7894 3.15066 117.998
38.6329 3.41094 117.516
38.868 3.15074 117.982
38.6666 3.48499 117.364
38.9465 3.15082 117.966
38.7448 3.48507 117.348
38.98 3.22547 117.812
38.7784 3.55896 117.196
39.0585 3.22555 117.796
38.8565 3.55903 117.18
39.1371 3.22563 117.78
38.9346 3.55912 117.164
39.1703 3.30012 117.627
38.9903 3.59604 117.08
39.2488 3.3002 117.611
39.046 3.63292 116.996
39.3273 3.30029 117.595
39.1241 3.633 116.98
39.4057 3.30037 117.579
39.2022 3.63309 116.964
39.4842 3.30046 117.563
39.3028 3.59637 117.016
39.5628 3.30054 117.547
39.4036 3.55962 117.068
39.5956 3.37487 117.394
39.4365 3.63335 116.916
39.674 3.37496 117.378
39.492 3.6702 116.833
39.7525 3.37505 117.362
39.5701 3.67029 116.817
39.7851 3.4492 117.209
39.6255 3.7071 116.733
39.9095 3.37523 117.33
39.7491 3.63372 116.853
39.988 3.37533 117.314
39.7817 3.70729 116.701
40.0665 3.37542 117.298
39.9284 3.59711 116.889
40.0988 3.44958 117.145
39.9379 3.70748 116.67
40.1773 3.44968 117.13
39.9932 3.74425 116.586
40.2557 3.44978 117.114
40.0942 3.70768 116.638
40.3342 3.44988 117.098
40.1724 3.70778 116.622
40.3199 3.59761 116.809
40.2045 3.78119 116.471
40.4912 3.45009 117.066
40.3288 3.70799 116.59
40.5697 3.45019 117.05
40.3838 3.74477 116.506
40.6483 3.4503 117.034
40.4389 3.78151 116.423
40.68 3.5243 116.881
40.4938 3.81821 116.339
40.7585 3.52441 116.865
40.5952 3.78173 116.391
40.837 3.52452 116.849
40.6734 3.78184 116.375
40.9155 3.52463 116.833
40.7515 3.78195 116.359
40.9469 3.59847 116.681
40.7831 3.85521 116.208
41.0725 3.52486 116.801
40.8846 3.81878 116.26
41.1984 3.45107 116.921
40.9862 3.7823 116.311
41.1823 3.59882 116.633
41.0175 3.85556 116.161
41.2608 3.59894 116.617
41.0957 3.85568 116.145
41.3393 3.59906 116.601
41.1974 3.81925 116.196
41.4178 3.59918 116.585
41.205 3.92891 115.978
41.4963 3.5993 116.569
41.3067 3.89256 116.029
41.5749 3.59942 116.553
41.3849 3.89269 116.013
41.6057 3.67311 116.402
41.4631 3.89281 115.997
41.6842 3.67324 116.386
41.5176 3.92942 115.914
41.7627 3.67337 116.37
41.5721 3.96598 115.831
41.7933 3.7469 116.219
41.6503 3.96611 115.815
41.9198 3.67363 116.338
41.7284 3.96624 115.799
41.9983 3.67376 116.322
41.8066 3.96638 115.783
41.9806 3.82053 116.036
41.861 4.0029 115.7
42.011 3.89374 115.885
41.9392 4.00304 115.684
42.1375 3.82081 116.004
41.9934 4.03953 115.602
42.3127 3.6743 116.257
42.1196 3.96693 115.719
42.3913 3.67443 116.241
42.1498 4.03981 115.57
42.3728 3.82123 115.956
42.228 4.03996 115.554
42.4999 3.74813 116.074
42.3062 4.0401 115.538
42.5785 3.74827 116.058
42.3844 4.04025 115.522
42.6571 3.74841 116.042
42.4627 4.0404 115.506
42.7358 3.74856 116.026
42.541 4.04055 115.49
42.7654 3.82195 115.875
42.595 4.07701 115.407
42.844 3.8221 115.859
42.6732 4.07717 115.391
42.9226 3.82225 115.843
42.7515 4.07732 115.375
43.0012 3.82241 115.827
42.8055 4.11375 115.292
43.0798 3.82256 115.811
42.8837 4.11391 115.276
43.1585 3.82272 115.795
42.962 4.11407 115.26
43.1877 3.89596 115.644
43.0158 4.15046 115.177
43.217 3.96904 115.494
43.0696 4.18682 115.095
43.2955 3.9692 115.478
43.1479 4.18699 115.079
43.374 3.96937 115.462
43.2507 4.15096 115.129
43.4525 3.96953 115.446
43.3044 4.18732 115.047
43.5311 3.9697 115.43
43.3827 4.18749 115.031
43.6097 3.96986 115.414
43.461 4.18766 115.014
43.7382 3.8971 115.531
43.5394 4.18784 114.998
43.7669 3.9702 115.382
43.5929 4.22417 114.916
43.8456 3.97038 115.365
43.6713 4.22435 114.9
43.8742 4.04332 115.216
43.7248 4.26064 114.818
44.0029 3.97072 115.333
43.828 4.2247 114.868
44.0816 3.9709 115.317
43.9064 4.22489 114.852
44.1603 3.97108 115.301
43.9598 4.26119 114.769
44.1886 4.04403 115.151
44.0382 4.26137 114.753
44.2673 4.04422 115.135
44.1416 4.22544 114.803
44.346 4.0444 115.119
44.195 4.26175 114.721
44.4247 4.04458 115.103
44.2734 4.26194 114.705
44.5034 4.04477 115.086
44.3518 4.26213 114.689
44.5821 4.04496 115.07
44.4303 4.26232 114.672
44.6609 4.04515 115.054
44.5088 4.26252 114.656
44.7397 4.04534 115.038
44.6126 4.22659 114.706
44.8185 4.04553 115.022
44.6405 4.299 114.558
44.8462 4.11835 114.872
44.6683 4.37125 114.41
44.9249 4.11855 114.856
44.7721 4.33545 114.46
44.9525 4.19121 114.707
44.8506 4.33565 114.443
45.0312 4.19142 114.691
44.9037 4.37187 114.361
45.11 4.19162 114.675
45.0077 4.33607 114.411
45.1374 4.26413 114.527
45.0352 4.40826 114.263
45.1648 4.33649 114.378
45.1137 4.40847 114.247
45.3462 4.19224 114.626
45.2178 4.37271 114.296
45.425 4.19245 114.61
45.2707 4.4089 114.214
45.5038 4.19266 114.594
45.3749 4.37314 114.264
45.4793 4.33734 114.314
45.4278 4.40933 114.182
45.6615 4.19309 114.561
45.4807 4.44549 114.1
45.7925 4.12082 114.677
45.5335 4.48161 114.018
45.8193 4.19352 114.529
45.6378 4.44594 114.068
45.8982 4.19375 114.512
45.6906 4.48206 113.986
45.925 4.26629 114.364
45.7433 4.51815 113.904
45.8997 4.41068 114.084
45.796 4.5542 113.822
46.0305 4.33891 114.2
45.9004 4.51862 113.872
46.1093 4.33914 114.183
45.979 4.51885 113.855
46.2406 4.2672 114.299
46.0837 4.48322 113.904
46.3196 4.26743 114.282
46.1624 4.48346 113.888
46.3459 4.33984 114.134
46.215 4.51957 113.806
46.4775 4.2679 114.25
46.2675 4.55563 113.725
46.5566 4.26814 114.233
46.3724 4.52005 113.774
46.5827 4.34056 114.085
46.4249 4.55613 113.692
46.7147 4.26861 114.201
46.5561 4.48468 113.807
46.7938 4.26885 114.184
46.6086 4.52079 113.725
46.8197 4.34129 114.036
46.661 4.55688 113.643
46.7927 4.48543 113.757
46.7134 4.59292 113.562
46.9246 4.41381 113.872
46.7922 4.59318 113.545
46.9505 4.48593 113.725
46.8181 4.66491 113.399
47.136 4.34228 113.971
46.9233 4.62945 113.447
47.1617 4.41457 113.823
47.0286 4.59396 113.496
47.1873 4.48671 113.676
47.0808 4.62998 113.415
47.2663 4.48697 113.659
47.1597 4.63025 113.398
47.3454 4.48723 113.643
47.2119 4.66624 113.317
47.4244 4.4875 113.626
47.2907 4.66651 113.3
47.5035 4.48777 113.61
47.3695 4.66678 113.284
47.4752 4.63133 113.333
47.3683 4.77399 113.073
47.5541 4.63161 113.316
47.4738 4.73867 113.121
47.6869 4.56031 113.43
47.5794 4.7033 113.17
47.712 4.63216 113.283
47.6314 4.73923 113.089
47.791 4.63244 113.267
47.6566 4.81069 112.943
47.8701 4.63273 113.25
47.7623 4.77541 112.991
47.8951 4.70444 113.104
48.0282 4.6333 113.218
47.9471 4.74038 113.023
48.1073 4.63359 113.201
48.026 4.74067 113.006
48.2409 4.56228 113.315
48.105 4.74096 112.99
48.3201 4.56257 113.298
48.1569 4.77688 112.909
48.3994 4.56286 113.282
48.2631 4.74156 112.957
48.424 4.63476 113.135
48.2878 4.81306 112.811
48.558 4.56345 113.249
48.4212 4.74216 112.924
48.6374 4.56375 113.232
48.5277 4.7068 112.972
48.5521 4.77839 112.826
48.6312 4.7787 112.81
48.7653 4.70771 112.923
48.683 4.8146 112.729
48.8997 4.63657 113.036
48.68 4.92144 112.519
48.9791 4.63687 113.019
48.7864 4.88629 112.566
49.0032 4.70865 112.873
48.948 4.77995 112.743
49.1379 4.63749 112.986
49.0272 4.78027 112.727
49.2174 4.63781 112.969
49.1065 4.78059 112.71
49.2968 4.63812 112.953
49.1029 4.88758 112.5
49.3764 4.63844 112.936
49.2097 4.85239 112.548
49.4001 4.71024 112.79
49.3167 4.81716 112.596
49.4796 4.71056 112.773
49.396 4.81749 112.579
49.4476 4.85338 112.498
49.392 4.92439 112.37
49.4713 4.92473 112.353
49.5505 4.92506 112.336
49.7416 4.78321 112.577
49.6856 4.85439 112.448
49.7651 4.85473 112.432
49.6812 4.9612 112.239
49.8445 4.85507 112.415
49.7885 4.9261 112.286
49.924 4.85541 112.398
49.8119 4.99731 112.141
50.0035 4.85576 112.382
49.8912 4.99766 112.125
50.083 4.85611 112.365
49.9986 4.9626 112.172
50.1062 4.92749 112.22
50.0219 5.03375 112.027
50.1857 4.92785 112.203
50.0732 5.06946 111.947
50.3217 4.85716 112.315
50.2652 4.92821 112.186
50.4014 4.85752 112.298
50.481 4.85788 112.282
50.396 4.96439 112.089
50.5039 4.92929 112.136
50.4701 5.0713 111.863
50.3572 5.21231 111.608
