# .PCD v0.7 - Point Cloud Data file format
VERSION 0.7
FIELDS x y z
SIZE 4 4 4
TYPE F F F
COUNT 1 1 1
WIDTH 1083
HEIGHT 1
VIEWPOINT 0 0 0 1 0 0 0
POINTS 1083
DATA ascii
7.618 783.769 674.902
7.61587 783.73 674.924
7.59669 783.381 675.123
7.59457 783.342 675.145
7.59244 783.304 675.167
7.56694 782.842 675.43
7.59132 782.789 675.537
7.56058 782.727 675.495
7.52569 782.59 675.497
7.49511 782.529 675.455
7.58493 782.674 675.603
7.54786 782.498 675.625
7.57641 782.521 675.689
7.54574 782.46 675.647
7.48252 782.301 675.584
7.53727 782.308 675.733
7.56152 782.255 675.84
7.5004 782.134 675.756
7.4983 782.096 675.777
7.52458 782.081 675.862
7.55302 782.103 675.926
7.52247 782.043 675.884
7.5509 782.065 675.948
7.52036 782.005 675.905
7.57086 781.936 676.097
7.56447 781.823 676.161
7.59293 781.845 676.225
7.56234 781.786 676.183
7.59079 781.808 676.247
7.5297 781.688 676.161
7.58865 781.77 676.268
7.52758 781.651 676.182
7.58652 781.732 676.289
7.52546 781.613 676.204
7.58438 781.695 676.31
7.52334 781.575 676.225
7.5517 781.597 676.289
7.52122 781.538 676.246
7.5801 781.619 676.353
7.54957 781.56 676.31
7.54744 781.522 676.331
7.50179 781.433 676.267
7.54532 781.485 676.353
7.51488 781.425 676.31
7.54319 781.447 676.374
7.4521 781.27 676.246
7.60212 781.529 676.481
7.5563 781.439 676.416
7.56943 781.432 676.459
7.50853 781.313 676.373
7.59784 781.454 676.523
7.52161 781.305 676.416
7.56516 781.357 676.501
7.51949 781.268 676.437
7.53257 781.26 676.479
7.48702 781.172 676.415
7.53045 781.223 676.5
7.48491 781.134 676.436
7.58926 781.304 676.607
7.52832 781.185 676.522
7.5262 781.148 676.543
7.49585 781.089 676.5
7.52408 781.111 676.564
7.47859 781.023 676.499
7.52196 781.074 676.585
7.47648 780.986 676.52
7.51984 781.036 676.606
7.45925 780.919 676.52
7.4874 780.941 676.584
7.44205 780.853 676.52
7.48529 780.903 676.605
7.45505 780.845 676.562
7.48318 780.866 676.626
7.45295 780.808 676.583
7.50923 780.85 676.711
7.59833 780.989 676.861
7.56786 780.93 676.818
7.59619 780.952 676.882
7.505 780.776 676.752
7.5332 780.797 676.816
7.50288 780.739 676.773
7.56145 780.819 676.88
7.51591 780.731 676.816
7.55931 780.782 676.901
7.46842 780.607 676.772
7.5876 780.803 676.966
7.49653 780.628 676.836
7.52469 780.649 676.9
7.4642 780.533 676.814
7.5529 780.67 676.964
7.43196 780.438 676.792
7.49018 780.517 676.898
7.44492 780.43 676.834
7.51831 780.538 676.962
7.45788 780.422 676.876
7.60733 780.676 677.113
7.47085 780.414 676.918
7.60517 780.639 677.134
7.45367 780.349 676.918
7.60302 780.602 677.155
7.48172 780.37 676.981
7.60087 780.564 677.176
7.4796 780.333 677.002
7.59872 780.527 677.197
7.49258 780.325 677.045
7.53583 780.374 677.13
7.49046 780.288 677.065
7.59441 780.453 677.238
7.51856 780.309 677.129
7.59226 780.416 677.259
7.50132 780.243 677.128
7.59011 780.379 677.279
7.4992 780.206 677.149
7.5576 780.285 677.257
7.48199 780.141 677.148
7.55546 780.248 677.277
7.44977 780.047 677.125
7.58366 780.269 677.342
7.52304 780.153 677.254
7.55118 780.174 677.319
7.49072 780.059 677.232
7.54904 780.137 677.339
7.4886 780.023 677.252
7.51453 780.006 677.337
7.48436 779.949 677.293
7.45215 779.856 677.271
7.54049 779.99 677.422
7.49519 779.905 677.356
7.56863 780.011 677.486
7.50814 779.896 677.399
7.53621 779.917 677.463
7.49094 779.831 677.397
7.56434 779.938 677.527
7.48882 779.795 677.418
7.59251 779.958 677.591
7.50176 779.787 677.46
7.52981 779.807 677.524
7.4395 779.637 677.394
7.61857 779.942 677.677
7.52767 779.77 677.545
7.61641 779.905 677.697
7.4653 779.62 677.478
7.55361 779.754 677.63
7.49326 779.641 677.542
7.55147 779.718 677.65
7.49113 779.604 677.563
7.51913 779.624 677.627
7.45895 779.511 677.539
7.57744 779.701 677.735
7.50193 779.559 677.625
7.57529 779.665 677.755
7.48476 779.495 677.624
7.57314 779.628 677.776
7.46762 779.43 677.622
7.5106 779.478 677.708
7.45049 779.366 677.621
7.47839 779.386 677.685
7.4334 779.301 677.619
7.56669 779.519 677.837
7.46126 779.321 677.684
7.56454 779.482 677.858
7.47415 779.313 677.726
7.56239 779.446 677.878
7.47202 779.277 677.746
7.56024 779.409 677.898
7.41002 779.128 677.679
7.55809 779.373 677.919
7.43782 779.148 677.743
7.58617 779.393 677.983
7.51072 779.252 677.873
7.58401 779.356 678.004
7.50859 779.216 677.893
7.58186 779.32 678.024
7.49143 779.151 677.891
7.5797 779.284 678.044
7.50432 779.143 677.934
7.57755 779.247 678.064
7.50219 779.107 677.954
7.57539 779.211 678.085
7.50006 779.071 677.974
7.57324 779.174 678.105
7.48292 779.006 677.972
7.57108 779.138 678.125
7.48079 778.97 677.993
7.56893 779.102 678.146
7.47866 778.934 678.013
7.56677 779.065 678.166
7.47653 778.898 678.033
7.56462 779.029 678.186
7.45943 778.834 678.031
7.56247 778.993 678.206
7.44236 778.77 678.029
7.56032 778.957 678.226
7.45519 778.762 678.072
7.55816 778.92 678.247
7.45307 778.726 678.092
7.52591 778.829 678.222
7.43601 778.662 678.09
7.52376 778.792 678.242
7.43389 778.626 678.11
7.55171 778.812 678.307
7.43177 778.59 678.13
7.51948 778.72 678.283
7.39986 778.499 678.106
7.48734 778.629 678.259
7.41264 778.491 678.148
7.54526 778.704 678.367
7.47024 778.565 678.256
7.54311 778.667 678.388
7.42332 778.447 678.21
7.45104 778.466 678.274
7.40631 778.383 678.208
7.44892 778.43 678.294
7.4042 778.348 678.228
7.50664 778.504 678.403
7.40209 778.312 678.248
7.59474 778.634 678.557
7.39998 778.276 678.268
7.59258 778.598 678.577
7.41275 778.268 678.31
7.50022 778.396 678.463
7.47029 778.341 678.419
7.52807 778.415 678.528
7.42341 778.223 678.372
7.52592 778.379 678.548
7.4511 778.242 678.437
7.55381 778.398 678.612
7.55166 778.362 678.633
7.46177 778.198 678.499
7.5495 778.327 678.652
7.44473 778.135 678.496
7.54735 778.291 678.672
7.45752 778.126 678.539
7.5452 778.255 678.692
7.48526 778.145 678.603
7.54304 778.219 678.712
7.45326 778.055 678.578
7.54089 778.183 678.732
7.40649 777.938 678.532
7.53873 778.147 678.752
7.50876 778.092 678.707
7.50661 778.057 678.727
7.43199 777.921 678.616
7.53443 778.075 678.792
7.44475 777.912 678.658
7.5623 778.094 678.857
7.47245 777.931 678.722
7.56014 778.058 678.877
7.47031 777.895 678.742
7.52798 777.968 678.852
7.46818 777.859 678.762
7.52583 777.932 678.871
7.45114 777.797 678.76
7.52368 777.897 678.891
7.41926 777.707 678.735
7.52152 777.861 678.911
7.46178 777.752 678.821
7.54934 777.88 678.976
7.44475 777.69 678.819
7.54718 777.844 678.996
7.42776 777.627 678.816
7.42563 777.592 678.836
7.39595 777.538 678.791
7.42351 777.556 678.856
7.42139 777.521 678.876
7.39172 777.467 678.831
7.41926 777.485 678.895
7.37481 777.405 678.828
7.59643 777.774 679.185
7.40231 777.423 678.893
7.56421 777.684 679.16
7.38538 777.361 678.89
7.59208 777.702 679.225
7.58991 777.667 679.244
7.41078 777.344 678.974
7.55772 777.577 679.219
7.39384 777.282 678.971
7.61564 777.649 679.329
7.40654 777.273 679.013
7.43408 777.291 679.078
7.37482 777.184 678.988
7.61128 777.578 679.369
7.47655 777.336 679.165
7.6091 777.542 679.388
7.47441 777.3 679.185
7.63703 777.561 679.454
7.57688 777.453 679.363
7.63485 777.525 679.473
7.54475 777.363 679.337
7.63266 777.489 679.493
7.63047 777.454 679.513
7.58537 777.373 679.444
7.62829 777.418 679.532
7.47859 777.15 679.305
7.68644 777.49 679.644
7.55106 777.248 679.438
7.65404 777.401 679.618
7.45943 777.053 679.322
7.71229 777.473 679.729
7.62173 777.311 679.591
7.64966 777.329 679.657
7.55953 777.169 679.52
7.70787 777.402 679.768
7.46788 776.973 679.403
7.70566 777.366 679.788
7.57017 777.124 679.582
7.70345 777.33 679.808
7.59798 777.142 679.647
7.70125 777.295 679.827
7.5808 777.08 679.644
7.57863 777.045 679.663
7.5487 776.991 679.618
7.66663 777.17 679.82
7.57645 777.009 679.683
18.7475 794.747 698.281
18.7414 794.691 698.304
18.5265 794.319 697.969
18.7972 794.743 698.423
18.7045 794.583 698.279
18.3023 793.842 697.683
18.7849 794.633 698.469
18.3265 793.84 697.753
18.7788 794.578 698.492
18.4113 793.943 697.917
18.7727 794.522 698.515
18.6802 794.363 698.37
18.8286 794.574 698.634
18.7049 794.361 698.441
18.8224 794.519 698.657
18.4845 793.936 698.128
18.8784 794.571 698.777
18.6928 794.251 698.486
18.8723 794.516 698.8
18.503 793.88 698.221
18.8662 794.46 698.823
18.4971 793.825 698.243
18.86 794.405 698.845
18.4911 793.771 698.266
18.4792 793.662 698.311
18.3882 793.506 698.168
18.8417 794.24 698.913
18.2919 793.297 698.049
18.8356 794.185 698.936
18.6505 793.868 698.645
18.8295 794.13 698.959
18.2501 793.138 698.047
18.8234 794.075 698.982
18.2443 793.084 698.069
18.8174 794.02 699.004
18.5103 793.495 698.52
18.8733 794.071 699.125
18.7495 793.86 698.929
18.8672 794.016 699.147
18.4984 793.386 698.565
18.7374 793.75 698.975
18.4621 793.28 698.54
18.8551 793.906 699.193
18.2452 792.866 698.229
18.849 793.852 699.215
18.2393 792.813 698.252
18.8429 793.797 699.238
18.2335 792.759 698.274
18.8369 793.742 699.26
18.2277 792.706 698.297
18.8929 793.793 699.381
18.312 792.805 698.462
18.8868 793.738 699.404
18.5483 793.163 698.868
18.8807 793.683 699.427
18.5424 793.109 698.89
18.8747 793.629 699.449
18.4151 792.849 698.72
18.8067 793.469 699.374
18.2287 792.489 698.456
18.8007 793.414 699.396
18.2529 792.486 698.526
18.2471 792.433 698.549
18.7886 793.305 699.441
18.1816 792.278 698.476
18.1758 792.225 698.499
18.1701 792.172 698.521
18.224 792.219 698.639
18.2183 792.166 698.661
18.8204 793.138 699.652
18.4835 792.569 699.115
18.2609 792.107 698.824
18.8025 792.974 699.72
18.7965 792.92 699.742
18.2494 792 698.868
18.2978 791.995 699.009
18.2379 791.894 698.913
18.7786 792.758 699.81
18.292 791.941 699.031
18.2863 791.888 699.054
18.2264 791.788 698.958
18.2806 791.835 699.076
18.2207 791.735 698.98
18.215 791.682 699.002
18.2093 791.629 699.025
18.8046 792.536 700.043
18.743 792.433 699.944
18.2462 791.517 699.21
18.2832 791.405 699.395
18.7631 792.159 700.2
18.2476 791.302 699.369
18.7572 792.105 700.223
18.69 791.949 700.146
18.326 791.345 699.559
18.6841 791.896 700.168
18.2604 791.193 699.484
18.8011 792.046 700.389
18.7396 791.944 700.29
18.7952 791.992 700.411
18.3389 791.236 699.674
18.851 792.04 700.534
18.3633 791.233 699.745
18.7834 791.884 700.456
18.722 791.783 700.357
18.8392 791.932 700.578
18.5027 791.377 700.034
18.8333 791.879 700.601
18.2264 790.877 699.618
18.8274 791.825 700.623
18.8215 791.771 700.645
18.8156 791.718 700.668
18.2095 790.719 699.684
18.8098 791.664 700.69
18.8039 791.61 700.712
18.1982 790.614 699.729
18.798 791.557 700.734
18.2522 790.66 699.848
18.7922 791.503 700.757
18.7805 791.396 700.801
18.2353 790.502 699.914
18.7746 791.343 700.824
18.2894 790.548 700.034
18.8304 791.39 700.946
18.2838 790.495 700.056
18.763 791.236 700.868
18.2781 790.443 700.078
18.8187 791.283 700.991
18.8128 791.23 701.013
18.807 791.176 701.035
18.8011 791.123 701.057
18.7953 791.07 701.08
18.7339 790.97 700.979
18.7895 791.016 701.102
18.7281 790.916 701.002
18.7837 790.963 701.124
18.7223 790.863 701.024
18.8394 791.01 701.247
18.8336 790.957 701.269
18.8278 790.903 701.292
18.7663 790.804 701.191
18.822 790.85 701.314
18.2165 789.868 700.321
18.8162 790.797 701.336
18.6934 790.598 701.135
18.8104 790.744 701.358
18.7489 790.644 701.257
18.8046 790.691 701.38
18.1404 789.616 700.29
18.7988 790.638 701.403
18.2538 789.756 700.507
18.793 790.584 701.425
18.2482 789.704 700.529
18.8487 790.631 701.548
18.4826 790.039 700.946
18.8429 790.578 701.57
18.7507 790.429 701.419
18.7756 790.425 701.491
18.2315 789.548 700.595
18.7699 790.372 701.513
18.7641 790.319 701.535
18.8083 790.259 701.703
18.5034 789.77 701.2
18.8641 790.305 701.827
18.3175 789.428 700.924
18.7967 790.154 701.747
18.4922 789.665 701.244
18.791 790.101 701.77
18.2765 789.276 700.919
18.7853 790.048 701.792
18.7795 789.995 701.814
18.7183 789.897 701.712
18.7738 789.942 701.836
18.2897 789.168 701.034
18.2191 788.969 700.979
18.3328 789.108 701.199
18.3273 789.056 701.221
18.2676 788.961 701.122
18.2026 788.814 701.045
18.8008 789.724 702.07
18.2455 788.754 701.21
18.7837 789.566 702.136
18.778 789.513 702.158
18.6501 789.267 701.977
18.7054 789.311 702.1
18.6445 789.215 701.999
18.7609 789.356 702.224
18.6997 789.259 702.122
18.2721 788.539 701.44
18.8108 789.348 702.371
18.2071 788.393 701.363
18.8052 789.295 702.393
18.7995 789.243 702.415
18.7938 789.191 702.437
18.7881 789.138 702.459
18.7824 789.086 702.481
18.7212 788.989 702.378
18.7768 789.033 702.503
18.7711 788.981 702.525
18.7655 788.929 702.547
18.6987 788.78 702.466
18.6931 788.728 702.488
18.8041 788.816 702.738
18.7429 788.72 702.635
18.7985 788.763 702.76
18.7373 788.668 702.657
18.7928 788.711 702.781
18.2496 787.861 701.868
18.8486 788.755 702.907
18.4533 788.137 702.242
18.7815 788.607 702.825
18.2387 787.759 701.911
18.7759 788.555 702.847
18.2927 787.8 702.033
18.2278 787.656 701.955
18.2224 787.605 701.977
18.8203 788.494 703.016
18.217 787.554 701.999
18.8147 788.442 703.038
18.4804 787.921 702.474
18.8091 788.389 703.06
18.7478 788.294 702.957
18.7422 788.242 702.979
18.2008 787.401 702.064
18.7367 788.19 703.001
18.225 787.396 702.136
18.7311 788.138 703.023
18.1846 787.248 702.129
18.7199 788.035 703.066
18.7754 788.077 703.192
18.4721 787.608 702.678
18.2871 787.279 702.396
18.2277 787.187 702.295
18.6976 787.827 703.154
18.217 787.085 702.338
18.6921 787.776 703.176
18.7419 787.766 703.323
18.2386 786.82 702.591
18.2333 786.769 702.613
18.2712 786.657 702.801
18.1823 786.521 702.649
18.7475 787.343 703.645
18.1474 786.425 702.621
18.742 787.291 703.667
18.7976 787.333 703.793
18.1959 786.414 702.765
18.1905 786.364 702.786
18.1852 786.313 702.808
18.7199 787.085 703.754
18.2095 786.308 702.88
18.7144 787.034 703.776
18.1746 786.212 702.852
18.8311 787.168 704.007
18.7089 786.982 703.798
18.8255 787.116 704.029
18.164 786.111 702.895
18.82 787.065 704.051
18.8145 787.013 704.073
18.7229 786.874 703.916
18.809 786.961 704.095
18.7478 786.869 703.99
18.2018 785.999 703.083
18.1965 785.948 703.104
18.7924 786.807 704.16
18.4592 786.303 703.587
18.8481 786.848 704.287
18.4839 786.298 703.66
18.7814 786.704 704.203
18.7759 786.653 704.225
18.7704 786.601 704.247
18.7649 786.55 704.269
18.704 786.458 704.164
18.7594 786.499 704.291
18.6985 786.407 704.185
18.3321 785.813 703.584
18.2134 785.635 703.379
18.7485 786.396 704.334
18.743 786.345 704.356
18.7376 786.294 704.378
18.7931 786.334 704.505
18.7877 786.283 704.526
18.7822 786.231 704.548
18.7212 786.14 704.443
18.8379 786.271 704.676
18.7767 786.18 704.57
18.8324 786.22 704.698
18.2041 785.07 703.762
18.1883 784.919 703.827
18.7833 785.76 704.893
18.1831 784.869 703.848
18.7724 785.658 704.937
18.8118 785.544 705.13
18.8064 785.493 705.151
18.4734 785.002 704.57
18.7956 785.391 705.195
18.7901 785.34 705.216
18.2195 784.5 704.218
18.7847 785.289 705.238
18.7793 785.238 705.26
18.1796 784.357 704.21
18.7739 785.187 705.281
18.1744 784.307 704.231
18.1692 784.257 704.253
18.7632 785.086 705.325
18.164 784.208 704.274
18.7578 785.035 705.346
18.2178 784.244 704.399
18.7524 784.984 705.368
18.2126 784.194 704.421
18.8026 784.972 705.518
18.7973 784.921 705.54
18.8476 784.908 705.691
18.8422 784.857 705.713
18.4788 784.328 705.073
18.7758 784.718 705.627
18.1764 783.846 704.571
18.7704 784.667 705.648
18.1713 783.796 704.593
18.7651 784.616 705.67
18.1661 783.747 704.614
18.7597 784.566 705.692
18.7544 784.515 705.713
18.749 784.465 705.735
18.1507 783.598 704.678
18.8046 784.502 705.864
18.1455 783.548 704.7
18.7993 784.452 705.886
18.4368 783.927 705.245
18.7832 784.3 705.951
18.7779 784.249 705.972
18.1736 783.336 704.933
18.7566 784.047 706.059
18.1582 783.188 704.997
18.7513 783.997 706.08
18.746 783.946 706.102
18.8016 783.983 706.232
18.1429 783.039 705.061
18.7963 783.933 706.253
18.1378 782.99 705.083
18.791 783.882 706.275
18.7857 783.832 706.296
18.1864 782.975 705.23
18.1762 782.876 705.273
18.7645 783.631 706.383
18.1508 782.63 705.38
18.7381 783.379 706.491
18.7276 783.279 706.534
18.7223 783.229 706.555
18.7171 783.179 706.577
18.7726 783.214 706.707
18.7118 783.128 706.598
18.8283 783.25 706.838
18.7369 783.121 706.674
18.2228 782.353 705.783
18.3361 782.471 706.017
18.1589 782.221 705.699
18.8125 783.099 706.903
18.7212 782.971 706.739
18.6857 782.878 706.706
18.1488 782.123 705.742
18.802 782.999 706.946
18.7411 782.913 706.836
18.7915 782.899 706.989
18.2514 782.141 706.018
18.7862 782.849 707.01
18.781 782.798 707.032
18.7757 782.748 707.054
18.7653 782.648 707.097
18.7496 782.498 707.161
18.7444 782.448 707.183
18.8001 782.483 707.314
18.1421 781.567 706.125
18.1371 781.518 706.147
18.1321 781.47 706.168
18.7844 782.333 707.379
18.1564 781.461 706.242
18.774 782.233 707.422
18.7133 782.149 707.312
18.7688 782.183 707.443
18.7081 782.099 707.333
18.7636 782.133 707.465
18.1071 781.225 706.275
18.1021 781.176 706.296
18.8089 782.068 707.64
18.7985 781.968 707.683
18.7933 781.918 707.704
18.1308 780.965 706.53
18.783 781.819 707.747
18.1259 780.916 706.552
18.106 780.721 706.637
18.7571 781.57 707.855
18.1011 780.672 706.658
18.752 781.52 707.877
18.1399 780.558 706.851
18.7768 781.255 708.138
18.1494 780.403 706.99
18.7716 781.206 708.16
18.4105 780.715 707.498
18.4601 780.698 707.65
18.7562 781.057 708.224
18.7511 781.007 708.246
18.154 780.2 707.15
18.746 780.958 708.267
18.1198 780.111 707.117
18.7409 780.908 708.289
18.1442 780.102 707.193
18.7358 780.859 708.31
18.7307 780.809 708.332
18.7256 780.76 708.353
18.1294 779.957 707.256
18.7659 780.644 708.551
18.7052 780.562 708.439
18.8217 780.676 708.685
18.1049 779.715 707.363
18.8063 780.527 708.749
18.7962 780.428 708.792
18.7911 780.379 708.813
18.7151 780.15 708.766
18.7101 780.1 708.787
18.7 780.002 708.83
18.7556 780.033 708.964
18.6949 779.953 708.852
18.7505 779.984 708.985
18.39 779.506 708.316
18.7454 779.935 709.007
18.1782 779.184 707.954
18.7404 779.885 709.028
18.1146 779.058 707.866
18.7354 779.836 709.05
18.0805 778.971 707.833
18.7303 779.787 709.071
18.4297 779.39 708.513
18.7203 779.688 709.114
18.1196 778.855 708.027
18.7608 779.571 709.313
18.5795 779.333 708.975
18.7558 779.522 709.335
18.6952 779.443 709.222
18.7507 779.473 709.356
18.6902 779.394 709.243
18.7457 779.424 709.378
18.3854 778.952 708.705
18.7407 779.375 709.399
18.6802 779.296 709.286
18.7357 779.326 709.421
18.6752 779.247 709.307
18.0761 778.422 708.218
18.7864 779.307 709.577
18.7207 779.178 709.485
18.3312 778.671 708.756
18.7057 779.031 709.549
18.7564 779.012 709.706
18.2773 778.39 708.807
18.7514 778.963 709.728
18.5702 778.728 709.388
18.6858 778.835 709.635
18.0913 778.066 708.519
18.0865 778.018 708.541
18.1019 777.661 708.842
18.6868 778.327 710.007
18.6819 778.278 710.028
18.7227 778.16 710.229
18.7178 778.111 710.25
18.7128 778.062 710.272
18.1175 777.305 709.144
18.7079 778.013 710.293
18.703 777.965 710.315
18.6981 777.916 710.336
18.6931 777.867 710.358
18.6882 777.818 710.379
18.1238 776.853 709.49
18.7144 777.554 710.645
18.7095 777.505 710.666
18.6491 777.429 710.551
18.7047 777.456 710.688
18.6998 777.408 710.709
18.1341 776.698 709.631
18.7457 777.338 710.889
18.6248 777.186 710.658
18.7408 777.289 710.911
18.7359 777.24 710.932
18.0766 776.375 709.703
18.1702 776.282 710.033
18.697 776.851 711.104
18.6922 776.803 711.126
18.0881 775.971 710.028
18.0788 775.876 710.07
18.0695 775.781 710.113
18.0462 775.544 710.22
18.7408 776.224 711.682
18.086 775.425 710.417
18.736 776.176 711.704
18.1692 775.485 710.609
18.6707 776.053 711.608
18.1352 775.401 710.573
18.6659 776.005 711.63
18.5755 775.895 711.455
18.6611 775.957 711.651
18.0674 775.235 710.503
18.0628 775.188 710.524
18.712 775.933 711.812
18.7072 775.885 711.833
18.318 775.413 711.079
18.7024 775.837 711.855
18.3133 775.366 711.101
18.7582 775.862 711.994
18.6976 775.788 711.876
18.6325 775.667 711.781
18.6881 775.692 711.919
18.0351 774.903 710.652
18.6229 775.57 711.824
18.0305 774.856 710.673
18.6785 775.595 711.963
18.6738 775.547 711.984
18.669 775.498 712.006
18.6642 775.45 712.027
18.3055 775.019 711.33
18.0075 774.62 710.78
18.7104 775.378 712.21
18.0566 774.595 710.936
18.7057 775.33 712.231
18.7009 775.281 712.253
18.6405 775.209 712.135
18.6962 775.233 712.275
18.3962 774.875 711.69
18.6914 775.185 712.296
18.6263 775.065 712.2
18.682 775.088 712.339
18.146 774.45 711.293
18.6772 775.04 712.361
18.0829 774.333 711.2
18.6725 774.992 712.383
18.663 774.895 712.426
18.6027 774.824 712.308
18.7046 774.774 712.631
18.6999 774.726 712.652
18.0463 773.955 711.371
18.0418 773.908 711.392
18.0956 773.929 711.528
18.0372 773.861 711.414
18.6858 774.582 712.717
18.6811 774.533 712.739
18.0281 773.766 711.456
18.6764 774.485 712.761
18.0236 773.719 711.478
18.7181 774.364 712.966
18.1764 773.688 711.93
18.7087 774.267 713.01
18.6483 774.197 712.89
18.7041 774.219 713.031
18.0411 773.363 711.785
18.0366 773.316 711.807
18.6853 774.027 713.118
18.1491 773.404 712.059
18.6203 773.909 713.02
18.676 773.931 713.161
18.6714 773.883 713.183
18.662 773.787 713.226
18.422 773.509 712.751
18.6574 773.739 713.248
18.6435 773.595 713.313
18.0499 772.912 712.137
18.6388 773.547 713.335
18.625 773.403 713.4
18.5647 773.334 713.28
18.4956 773.17 713.205
18.0185 772.583 712.287
18.0141 772.536 712.308
18.0679 772.555 712.446
18.059 772.461 712.489
18.113 772.48 712.627
18.0545 772.414 712.51
18.5835 772.972 713.595
18.5234 772.904 713.476
18.5789 772.924 713.617
18.6346 772.945 713.759
18.2761 772.539 713.044
18.5698 772.829 713.661
18.4499 772.693 713.421
18.0322 772.179 712.618
18.5424 772.542 713.791
18.0595 771.916 712.886
18.6492 772.534 714.098
18.1136 771.934 713.024
18.6446 772.486 714.119
18.5242 772.352 713.878
18.0462 771.775 712.95
18.0418 771.728 712.972
18.6914 772.41 714.306
18.3317 772.009 713.584
18.6869 772.362 714.328
18.6823 772.315 714.35
18.6219 772.247 714.228
18.6173 772.2 714.25
18.6128 772.152 714.272
18.0737 771.511 713.219
18.6037 772.056 714.316
18.0693 771.464 713.24
18.5992 772.008 714.338
18.5946 771.961 714.359
18.5901 771.913 714.381
18.6459 771.932 714.525
18.5811 771.818 714.425
18.0765 771.262 713.407
18.6369 771.836 714.568
18.1014 771.247 713.488
18.6324 771.789 714.59
18.5676 771.675 714.49
18.0341 771.089 713.413
18.6233 771.693 714.634
18.2944 771.332 713.97
18.6188 771.645 714.656
18.5586 771.579 714.534
18.6098 771.55 714.7
18.0751 770.965 713.618
18.0123 770.854 713.521
18.6008 771.455 714.744
18.5963 771.407 714.766
18.6522 771.425 714.91
18.293 771.034 714.182
18.6477 771.377 714.932
18.5874 771.312 714.809
18.5829 771.264 714.831
18.6388 771.282 714.976
17.9818 770.527 713.673
18.0358 770.543 713.813
18.5852 770.71 715.239
18.5808 770.662 715.261
18.5763 770.615 715.283
18.0921 770.013 714.356
18.0292 769.904 714.258
18.3789 770.233 715.004
18.5366 770.187 715.481
18.4123 770.013 715.257
18.5836 770.108 715.671
18.6396 770.124 715.817
18.5491 770.029 715.631
18.6308 770.029 715.861
18.6264 769.981 715.883
18.622 769.933 715.905
18.6176 769.886 715.927
18.6088 769.791 715.972
18.6045 769.743 715.994
18.5957 769.648 716.038
18.5354 769.585 715.914
18.5311 769.538 715.936
18.518 769.395 716.002
18.5137 769.348 716.024
18.5093 769.301 716.047
18.4493 769.239 715.923
18.505 769.253 716.069
18.445 769.191 715.945
18.0265 768.717 715.11
17.9681 768.657 714.989
18.0222 768.67 715.132
18.5522 769.173 716.26
18.5435 769.078 716.304
18.5952 769.045 716.474
18.0554 768.45 715.385
18.0512 768.403 715.407
18.5822 768.902 716.54
18.4919 768.81 716.353
18.5779 768.855 716.563
18.4876 768.763 716.375
18.5736 768.807 716.585
17.9801 768.203 715.352
18.5693 768.76 716.607
17.9759 768.157 715.374
18.0301 768.169 715.517
17.9717 768.11 715.396
18.0259 768.123 715.539
18.0803 768.135 715.683
18.0175 768.029 715.583
18.5349 768.38 716.786
18.5306 768.333 716.808
18.5867 768.346 716.956
18.051 767.808 715.838
18.5221 768.238 716.853
18.4021 768.117 716.602
18.0426 767.714 715.882
18.5739 768.203 717.023
17.98 767.609 715.782
17.9758 767.562 715.804
17.9175 767.504 715.682
18.5654 768.108 717.068
18.0301 767.574 715.948
18.5008 768.001 716.964
18.5568 768.013 717.113
18.5526 767.966 717.135
18.5483 767.919 717.158
18.5229 767.634 717.292
18.5187 767.587 717.315
18.506 767.445 717.382
18.4159 767.356 717.192
18.4976 767.35 717.427
18.4892 767.255 717.472
18.4291 767.196 717.345
17.9517 766.688 716.37
18.5369 767.172 717.667
18.4767 767.113 717.54
18.5932 767.183 717.817
18.4424 767.036 717.499
18.3958 766.818 717.525
18.5118 766.887 717.802
18.5077 766.84 717.825
18.491 766.65 717.915
18.4869 766.603 717.938
18.4827 766.556 717.961
18.0661 766.157 717.076
18.4786 766.508 717.983
18.4744 766.461 718.006
18.4703 766.414 718.029
18.462 766.319 718.074
18.5141 766.281 718.247
18.4538 766.224 718.119
18.4497 766.177 718.142
18.3896 766.12 718.014
18.5663 766.244 718.422
18.4757 766.158 718.229
18.5621 766.196 718.445
18.4716 766.111 718.251
18.4976 766.092 718.338
18.0216 765.643 717.323
18.4935 766.044 718.361
17.9589 765.541 717.221
18.5498 766.054 718.513
18.0095 765.503 717.391
17.9509 765.448 717.266
18.3529 765.695 718.218
18.4689 765.76 718.498
17.9349 765.261 717.356
18.5252 765.769 718.65
18.1958 765.462 717.945
17.9854 765.223 717.526
18.3366 765.506 718.309
18.4526 765.571 718.589
18.4444 765.476 718.635
17.9402 765.009 717.554
18.4404 765.429 718.658
17.907 764.935 717.514
18.4966 765.437 718.81
18.4925 765.39 718.833
18.3083 765.176 718.469
18.4844 765.295 718.879
17.8911 764.749 717.604
17.8832 764.655 717.649
17.9883 764.623 717.969
17.9297 764.569 717.843
18.5165 765.018 719.17
18.2464 764.772 718.588
18.328 764.759 718.826
18.432 764.679 719.178
18.428 764.631 719.201
18.4764 764.544 719.4
6.7853 751.915 695.636
6.70239 751.845 695.454
6.81065 751.906 695.714
6.72757 751.836 695.531
6.80824 751.874 695.731
6.72517 751.804 695.548
6.8615 751.889 695.87
6.75039 751.795 695.625
6.88701 751.88 695.948
6.73417 751.752 695.611
6.801 751.778 695.78
6.71796 751.708 695.597
6.77085 751.722 695.736
6.71556 751.676 695.614
6.78893 751.617 695.863
6.74736 751.582 695.771
