# .PCD v0.7 - Point Cloud Data file format
VERSION 0.7
FIELDS x y z
SIZE 4 4 4
TYPE F F F
COUNT 1 1 1
WIDTH 588
HEIGHT 1
VIEWPOINT 0 0 0 1 0 0 0
POINTS 588
DATA ascii
-6.94695 -52.8054 176.034
-6.94515 -52.6498 176.007
-6.94336 -52.4943 175.981
-6.94157 -52.3388 175.955
-6.93978 -52.1835 175.929
-6.938 -52.0283 175.902
-6.93622 -51.8732 175.876
-6.93443 -51.7181 175.85
-6.32317 8.85956 163.349
-6.85509 -51.0483 177.615
-6.85332 -50.8922 177.588
-6.85156 -50.7361 177.561
-6.8498 -50.5802 177.534
-6.84804 -50.4243 177.507
-6.84628 -50.2685 177.479
-6.84453 -50.1128 177.452
-6.84277 -49.9572 177.425
-6.84102 -49.8017 177.397
-6.83927 -49.6463 177.37
-6.83753 -49.491 177.343
-6.83578 -49.3357 177.315
-6.83404 -49.1806 177.288
-6.8323 -49.0255 177.261
-6.83055 -48.8706 177.233
-6.82882 -48.7156 177.206
-6.82708 -48.5609 177.178
-6.82535 -48.4061 177.151
-6.82362 -48.2515 177.124
-6.82189 -48.097 177.096
-5.99301 -54.6675 201.934
-6.81844 -47.7882 177.041
-6.81671 -47.6339 177.014
-6.81499 -47.4797 176.986
-6.81327 -47.3256 176.959
-6.81155 -47.1716 176.931
-6.80984 -47.0177 176.904
-6.80812 -46.8638 176.876
-6.0639 -52.578 199.09
-6.06218 -52.4033 199.053
-5.97584 -52.893 201.548
-6.80129 -46.2493 176.766
-6.79958 -46.0959 176.739
-6.79788 -45.9425 176.711
-6.79618 -45.7893 176.683
-6.79448 -45.6362 176.656
-6.79279 -45.4831 176.628
-6.79109 -45.3301 176.601
-6.7894 -45.1772 176.573
-6.78771 -45.0244 176.545
-6.78602 -44.8716 176.518
-6.78434 -44.719 176.49
-6.78265 -44.5664 176.462
-4.89155 11.1517 199.823
-6.71086 -44.6049 178.364
-6.70918 -44.4508 178.335
-6.7075 -44.2968 178.307
-6.70583 -44.1429 178.278
-6.70416 -43.9891 178.25
-6.70248 -43.8354 178.221
-6.70082 -43.6818 178.192
-6.69915 -43.5282 178.164
-6.69749 -43.3747 178.135
-6.69582 -43.2213 178.107
-6.69416 -43.068 178.078
-6.6925 -42.9148 178.049
-6.69084 -42.7617 178.021
-6.68919 -42.6086 177.992
-6.61594 -42.6271 179.922
-6.61429 -42.4725 179.893
-6.61264 -42.318 179.863
-6.611 -42.1636 179.833
-6.60935 -42.0093 179.804
-6.60771 -41.8551 179.774
-6.60607 -41.7009 179.745
-6.60443 -41.5469 179.715
-6.6028 -41.3929 179.685
-6.60116 -41.239 179.656
-6.59953 -41.0852 179.626
-6.58815 -40.0109 179.419
-6.58653 -39.8578 179.389
-6.58491 -39.7047 179.359
-6.5833 -39.5518 179.33
-6.58169 -39.3989 179.3
-6.58008 -39.2461 179.27
-6.57847 -39.0934 179.24
-6.57686 -38.9407 179.211
-6.57526 -38.7881 179.181
-6.57365 -38.6357 179.151
-6.57205 -38.4833 179.121
-6.57046 -38.3309 179.091
-5.70168 -43.5642 204.346
-6.56726 -38.0266 179.032
-6.56567 -37.8745 179.002
-6.56407 -37.7225 178.972
-6.56248 -37.5706 178.942
-6.48151 -36.9233 180.761
-6.47994 -36.7702 180.731
-6.47836 -36.6171 180.7
-6.47679 -36.4642 180.669
-6.47522 -36.3114 180.638
-6.47365 -36.1586 180.608
-6.47208 -36.0059 180.577
-6.47052 -35.8533 180.546
-6.46895 -35.7008 180.515
-6.46739 -35.5484 180.484
-4.45802 15.7988 209.007
-6.38346 -34.7237 182.297
-6.38192 -34.5701 182.266
-6.38037 -34.4167 182.234
-6.37883 -34.2633 182.202
-6.37729 -34.11 182.17
-6.37575 -33.9567 182.138
-6.37421 -33.8036 182.107
-6.37268 -33.6505 182.075
-6.37114 -33.4975 182.043
-6.36961 -33.3446 182.011
-6.36808 -33.1918 181.979
-6.36655 -33.0391 181.948
-6.36502 -32.8864 181.916
-6.3635 -32.7338 181.884
-6.36198 -32.5813 181.852
-6.36046 -32.4289 181.82
-6.35893 -32.2765 181.788
-6.35742 -32.1242 181.756
-6.3559 -31.972 181.724
-6.35438 -31.8199 181.692
-6.33038 -29.3967 181.181
-6.3289 -29.2459 181.148
-6.32741 -29.0952 181.116
-6.32593 -28.9445 181.084
-6.32445 -28.7939 181.052
-6.32297 -28.6435 181.02
-6.32149 -28.493 180.988
-6.32002 -28.3427 180.956
-6.31854 -28.1924 180.924
-6.31707 -28.0422 180.892
-6.2752 -31.5707 183.652
-6.2737 -31.4171 183.619
-6.2722 -31.2637 183.586
-6.27069 -31.1103 183.553
-6.26919 -30.957 183.521
-6.26769 -30.8037 183.488
-6.2662 -30.6506 183.455
-6.2647 -30.4975 183.422
-6.26321 -30.3445 183.389
-6.26171 -30.1916 183.356
-6.26023 -30.0387 183.323
-6.23954 -27.9071 182.862
-6.23807 -27.7555 182.829
-6.23661 -27.6039 182.796
-6.23515 -27.4523 182.763
-6.23369 -27.3009 182.73
-6.23223 -27.1495 182.697
-6.23078 -26.9982 182.664
-6.22932 -26.847 182.631
-6.22787 -26.6959 182.598
-6.22642 -26.5448 182.564
-6.22497 -26.3938 182.531
-6.22352 -26.2429 182.498
-6.14583 -26.2399 184.535
-6.14439 -26.0874 184.501
-6.14294 -25.935 184.467
-6.14151 -25.7827 184.433
-6.14007 -25.6304 184.399
-6.13863 -25.4782 184.365
-6.1372 -25.3261 184.331
-6.13577 -25.174 184.297
-6.13434 -25.0221 184.262
-6.13291 -24.8702 184.229
-6.13148 -24.7184 184.194
-6.13005 -24.5666 184.16
-6.12863 -24.4149 184.126
-6.12721 -24.2634 184.092
-6.12579 -24.1118 184.058
-6.12437 -23.9604 184.024
-6.12295 -23.809 183.99
-6.12153 -23.6578 183.956
-6.12012 -23.5065 183.922
-6.11871 -23.3554 183.887
-6.1173 -23.2043 183.853
-6.11589 -23.0533 183.819
-6.11448 -22.9024 183.785
-6.11307 -22.7515 183.751
-6.11166 -22.6008 183.717
-6.11026 -22.4501 183.683
-6.10886 -22.2995 183.648
-6.10746 -22.1489 183.614
-6.02817 -22.1008 185.671
-6.02678 -21.9486 185.636
-6.02539 -21.7966 185.601
-6.024 -21.6446 185.566
-6.02261 -21.4927 185.531
-6.02122 -21.3408 185.496
-6.01983 -21.1891 185.461
-5.92236 -19.2943 187.125
-5.921 -19.1418 187.089
-5.91964 -18.9895 187.053
-5.91829 -18.8371 187.016
-5.91693 -18.6849 186.98
-5.91558 -18.5327 186.944
-5.91422 -18.3806 186.908
-5.91288 -18.2285 186.872
-5.91153 -18.0766 186.836
-5.91018 -17.9247 186.799
-5.90883 -17.7729 186.763
-5.8141 -16.2966 188.553
-5.81278 -16.1439 188.516
-5.81146 -15.9912 188.478
-5.81013 -15.8385 188.441
-5.80881 -15.686 188.404
-5.80749 -15.5335 188.367
-5.80618 -15.3811 188.329
-5.80486 -15.2288 188.292
-5.80355 -15.0765 188.255
-5.80224 -14.9243 188.218
-5.80093 -14.7722 188.18
-5.79961 -14.6202 188.143
-5.7983 -14.4682 188.106
-5.797 -14.3163 188.069
-5.7957 -14.1645 188.031
-5.79439 -14.0127 187.994
-5.79309 -13.861 187.957
-5.79179 -13.7094 187.919
-5.79049 -13.5578 187.882
-5.78919 -13.4064 187.845
-5.78789 -13.255 187.807
-5.7866 -13.1036 187.77
-5.78531 -12.9524 187.733
-5.6996 -12.6465 189.837
-5.69831 -12.4937 189.799
-5.69703 -12.341 189.76
-5.69575 -12.1883 189.722
-5.69447 -12.0357 189.684
-5.69319 -11.8832 189.646
-5.69191 -11.7308 189.607
-5.69064 -11.5784 189.569
-5.68936 -11.4261 189.531
-5.68809 -11.2738 189.492
-5.68682 -11.1217 189.454
-5.68555 -10.9696 189.415
-5.68428 -10.8176 189.377
-5.68302 -10.6656 189.339
-5.68175 -10.5137 189.3
-5.68049 -10.3619 189.262
-5.67923 -10.2101 189.224
-5.67797 -10.0585 189.185
-5.67671 -9.90686 189.147
-5.67545 -9.75532 189.108
-5.67419 -9.60386 189.07
-5.67294 -9.45245 189.032
-5.67169 -9.30112 188.993
-5.67043 -9.14986 188.955
-5.66919 -8.99866 188.916
-5.66794 -8.84754 188.878
-5.66669 -8.69648 188.84
-5.57803 -8.18893 190.926
-5.5768 -8.0364 190.887
-5.57556 -7.88394 190.847
-5.57433 -7.73155 190.808
-5.5731 -7.57923 190.768
-5.57186 -7.42698 190.729
-5.57064 -7.2748 190.69
-5.56941 -7.12269 190.65
-5.56818 -6.97064 190.611
-5.56696 -6.81866 190.571
-5.56573 -6.66676 190.532
-5.56451 -6.51491 190.492
-5.56329 -6.36314 190.453
-5.56207 -6.21143 190.413
-5.56085 -6.05979 190.374
-5.55964 -5.90823 190.334
-5.55842 -5.75673 190.295
-5.55721 -5.60529 190.255
-5.55599 -5.45392 190.216
-5.55478 -5.30262 190.176
-5.55357 -5.15139 190.137
-5.55237 -5.00022 190.097
-5.55116 -4.84912 190.058
-5.54996 -4.69809 190.018
-5.45838 -3.99097 192.087
-5.45719 -3.83852 192.047
-5.456 -3.68614 192.006
-5.45481 -3.53384 191.966
-5.45362 -3.38159 191.925
-5.45244 -3.22942 191.885
-5.45125 -3.07731 191.844
-5.45007 -2.92527 191.803
-5.44888 -2.77329 191.763
-5.4477 -2.62139 191.722
-5.44652 -2.46955 191.682
-5.44534 -2.31777 191.641
-5.44417 -2.16606 191.601
-5.44299 -2.01442 191.56
-5.44181 -1.86284 191.52
-5.44064 -1.71133 191.479
-5.34726 -0.966234 193.577
-5.3461 -0.813296 193.536
-5.34494 -0.660423 193.494
-5.34379 -0.507617 193.453
-5.34263 -0.35488 193.411
-5.34148 -0.20221 193.369
-5.34032 -0.0495999 193.328
-5.33917 0.102939 193.286
-5.33802 0.255413 193.244
-5.33687 0.407821 193.203
-5.33572 0.560168 193.161
-5.33457 0.712444 193.119
-5.33114 1.16889 192.995
-5.33 1.3209 192.953
-5.32886 1.47286 192.911
-5.32772 1.62474 192.869
-5.32659 1.77656 192.828
-5.32545 1.92832 192.786
-5.32432 2.08002 192.744
-5.32318 2.23165 192.703
-5.32205 2.38322 192.661
-5.32092 2.53472 192.619
-5.31979 2.68616 192.578
-5.31866 2.83753 192.536
-5.31753 2.98884 192.494
-5.31641 3.14008 192.452
-5.22244 3.7897 194.612
-3.69529 4.74544 234.221
-5.22021 4.09513 194.526
-5.2191 4.24774 194.483
-5.21799 4.4003 194.441
-5.21688 4.55278 194.398
-5.21577 4.70521 194.355
-5.21467 4.85757 194.312
-5.21357 5.00986 194.269
-5.21246 5.1621 194.227
-5.21136 5.31427 194.184
-5.21026 5.46638 194.141
-5.20916 5.61842 194.098
-5.20806 5.7704 194.056
-5.20697 5.92231 194.013
-5.20587 6.07417 193.97
-5.20477 6.22596 193.927
-5.20368 6.37769 193.884
-5.20259 6.52936 193.842
-5.2015 6.68096 193.799
-5.20041 6.83251 193.756
-5.19933 6.98399 193.713
-5.19824 7.1354 193.67
-5.19716 7.28676 193.627
-5.19607 7.43806 193.585
-5.19499 7.58929 193.542
-5.1939 7.74046 193.499
-5.19283 7.89157 193.456
-5.19175 8.04261 193.413
-5.19067 8.1936 193.37
-5.1896 8.34452 193.327
-5.18852 8.49539 193.285
-5.18745 8.6462 193.242
-5.18638 8.79694 193.199
-5.09171 9.36112 195.416
-5.09064 9.51342 195.373
-5.08958 9.66567 195.329
-5.08853 9.81785 195.285
-5.08747 9.96997 195.241
-4.99169 10.4002 197.55
-4.99064 10.5539 197.506
-4.89258 10.9962 199.87
-4.79112 11.6065 202.244
-4.79009 11.7637 202.196
-4.78907 11.9208 202.149
-4.78805 12.0779 202.102
-4.68519 12.5494 204.578
-4.68418 12.7083 204.53
-4.68317 12.867 204.481
-4.68216 13.0258 204.433
-4.68116 13.1844 204.385
-4.68015 13.343 204.337
-4.67915 13.5015 204.288
-4.67815 13.6599 204.24
-4.67714 13.8183 204.192
-4.57084 14.4767 206.67
-4.56985 14.6368 206.62
-4.56887 14.7969 206.571
-4.56788 14.9568 206.521
-4.45996 15.4753 209.108
-4.45899 15.6371 209.057
-4.34834 16.1707 211.708
-4.34739 16.3343 211.656
-4.34643 16.498 211.604
-4.2339 16.8837 214.374
-4.23296 17.0493 214.321
-4.11746 17.4474 217.164
-3.8779 18.104 223.138
-3.75266 18.5334 226.221
-1.92457 25.2125 271.029
-1.739 25.8558 275.593
-3.35526 19.8958 236.004
-2.10409 24.5902 266.613
-1.35366 24.3706 286.401
-3.06526 22.1775 242.536
-1.74399 23.7437 276.457
-1.9289 23.5504 271.698
-2.10757 23.3637 267.099
-2.61048 22.4493 254.338
0.814381 30.3214 340.469
-2.44673 23.2066 258.276
-2.27845 23.7869 262.417
-1.54705 26.5212 280.315
-1.34842 27.2099 285.201
-1.14272 27.923 290.261
-0.929561 28.662 295.504
-0.929266 28.887 295.406
-0.708098 29.886 300.737
-0.707872 30.1147 300.635
-0.707647 30.3432 300.534
-0.707422 30.5716 300.432
-0.707197 30.7999 300.33
-0.706973 31.0281 300.229
-0.706748 31.2561 300.127
-0.706524 31.484 300.026
-0.706299 31.7118 299.924
-0.706075 31.9394 299.823
-0.705837 32.167 299.722
-0.705613 32.3944 299.621
-0.70539 32.6217 299.52
-0.476696 33.9352 304.9
-0.476533 34.1661 304.795
-0.476384 34.3969 304.691
-0.476221 34.6275 304.586
-0.476058 34.858 304.482
-0.475909 35.0883 304.377
-0.475746 35.3185 304.273
-0.475583 35.5487 304.169
-0.475434 35.7786 304.065
-0.475272 36.0084 303.961
-0.475109 36.2382 303.857
-0.474961 36.4677 303.752
-0.474799 36.6972 303.649
-0.47465 36.9265 303.544
-0.474488 37.1557 303.441
-0.474326 37.3848 303.337
-0.474178 37.6137 303.233
-0.474016 37.8426 303.13
-0.473868 38.0712 303.026
-0.473707 38.2998 302.922
-0.473545 38.5283 302.819
-0.473398 38.7566 302.715
-0.473236 38.9848 302.612
-0.473089 39.2129 302.508
-0.472927 39.4408 302.405
-0.23649 43.4351 306.726
-0.236408 43.6653 306.62
-0.236312 43.8954 306.514
-0.23623 44.1254 306.408
-0.236148 44.3552 306.302
-0.236052 44.585 306.196
-0.23597 44.8145 306.09
-0.235874 45.044 305.984
-0.235792 45.2734 305.878
-0.235711 45.5026 305.773
-0.235615 45.7317 305.667
-0.235533 45.9607 305.561
-0.235438 46.1896 305.456
-0.235356 46.4183 305.35
-0.23526 46.647 305.245
-0.235179 46.8755 305.14
-0.235098 47.1039 305.034
-0.235002 47.3322 304.929
-0.234921 47.5603 304.824
-0.234825 47.7884 304.719
-0.234744 48.0163 304.614
-0.234663 48.244 304.509
-0.234568 48.4718 304.404
-0.234487 48.6993 304.299
-0.234392 48.9268 304.194
-0.234311 49.1541 304.089
-0.234216 49.3814 303.985
0.00743685 51.031 309.547
0.00744916 51.2618 309.438
0.00746146 51.4925 309.33
0.00748866 51.7232 309.222
0.00750094 51.9537 309.114
0.00752811 52.1841 309.006
0.00754036 52.4143 308.898
0.00756749 52.6445 308.79
0.00757972 52.8745 308.682
0.00760682 53.1045 308.574
0.00761903 53.3342 308.466
0.00764609 53.5639 308.359
0.00765827 53.7935 308.251
0.00768531 54.023 308.144
0.00769747 54.2523 308.036
0.00772447 54.4815 307.929
0.257028 57.8794 312.868
0.256982 58.1115 312.757
0.256937 58.3435 312.647
0.256891 58.5754 312.536
0.25683 58.8072 312.426
0.256785 59.0388 312.315
0.256739 59.2704 312.205
0.256694 59.5018 312.095
0.256633 59.7331 311.984
0.256587 59.9643 311.874
0.256542 60.1954 311.764
0.256497 60.4264 311.654
0.256451 60.6572 311.544
0.513992 63.0387 317.178
0.513869 63.2731 317.064
0.513746 63.5074 316.951
0.513623 63.7416 316.837
0.5135 63.9756 316.724
0.513393 64.2096 316.611
0.51327 64.4435 316.497
0.513147 64.6772 316.384
0.513025 64.9108 316.271
0.512918 65.1443 316.158
0.512795 65.3777 316.045
0.512672 65.6109 315.932
0.512566 65.8442 315.819
0.512443 66.0772 315.706
0.512321 66.3101 315.593
0.512214 66.543 315.481
0.512092 66.7757 315.368
0.51197 67.0082 315.255
0.511863 67.2408 315.143
0.511741 67.4731 315.03
0.511634 67.7054 314.918
0.511512 67.9376 314.806
0.511406 68.1697 314.693
0.511284 68.4016 314.581
0.511178 68.6334 314.469
0.511056 68.8651 314.357
0.776181 71.6659 319.992
0.775993 71.9011 319.876
0.775805 72.1362 319.761
0.775616 72.3712 319.645
0.775445 72.6062 319.53
0.775257 72.841 319.414
0.775069 73.0756 319.299
0.774881 73.3102 319.183
0.774693 73.5447 319.068
0.774505 73.779 318.953
0.774334 74.0133 318.838
0.774146 74.2474 318.723
0.773959 74.4815 318.607
0.773771 74.7154 318.492
0.7736 74.9493 318.378
0.773413 75.1829 318.263
0.773242 75.4166 318.148
0.773054 75.6501 318.033
0.772867 75.8835 317.918
0.772696 76.1168 317.804
0.772509 76.35 317.689
1.04682 78.6198 323.816
1.04656 78.8569 323.697
1.0463 79.0939 323.579
1.04604 79.3308 323.46
1.04579 79.5675 323.342
1.04553 79.8042 323.224
1.04529 80.0408 323.106
1.04503 80.2773 322.988
1.04477 80.5136 322.87
1.04452 80.7498 322.752
1.04428 80.986 322.634
1.04402 81.222 322.516
1.04376 81.4579 322.399
1.04352 81.6938 322.281
1.04326 81.9295 322.163
1.04302 82.1652 322.046
1.04277 82.4007 321.928
1.04253 82.6361 321.811
1.32538 85.7846 327.748
1.32505 86.0236 327.626
1.32473 86.2627 327.506
1.3244 86.5015 327.384
1.32408 86.7404 327.264
1.32375 86.979 327.142
1.32342 87.2175 327.021
1.3231 87.4561 326.901
1.32279 87.6945 326.78
1.32246 87.9327 326.659
1.32214 88.1709 326.539
1.32181 88.4089 326.418
1.3215 88.6469 326.298
1.32118 88.8848 326.177
1.32087 89.1226 326.057
1.32054 89.3602 325.937
1.32022 89.5978 325.816
1.31991 89.8352 325.696
1.31959 90.0726 325.576
1.31928 90.3099 325.456
1.31897 90.5471 325.336
